# 3D point list with one line of data per point:
#   POINT3D_ID, X, Y, Z, R, G, B, ERROR, TRACK[] as (IMAGE_ID, POINT2D_IDX)
# Number of points: 383, mean track length: 5.085386221294363
4540 0.74352701828892354 2.5528335864712557 1.8071186322503547 0 0 0 0.15001512667920774 72 616 6 264
4541 -0.038714828932018025 2.1724229548586012 2.2025694673693539 62 45 18 1.3128819901945303 71 558 6 265 99 561
4542 -1.1759842265989429 2.4670845036611251 2.0795613431397246 16 12 11 0.047538514228628433 71 572 6 282
4543 -1.0225132267378345 2.4709450859140967 2.1717697680813508 134 126 137 0.096946243690408898 71 601 6 288 99 573
4544 -0.16580504371029042 2.1532218978935007 2.5068537907681665 122 120 135 0.15475935979838817 71 636 6 298
4545 -1.797988995261284 3.9704229946820475 1.2918554031015694 0 0 0 2.2760876091905073 68 661 6 346
4856 -1.0184764959136292 2.139335247892177 1.7939434005680854 77 75 84 1.3208106201066161 55 522 17 1144
4857 -1.0212805523344479 2.3330756610511254 2.4569403272687782 48 31 23 0.98831222629774984 55 536 17 1152 13 1059 73 656 36 896 18 944
4859 0.11701696539352166 2.1537603352558845 3.1614041401240813 0 0 0 1.5117933966517836 18 1039 55 598 13 1119 73 715
4860 0.20559248806738373 1.1259497115215766 2.0559132474221942 170 101 16 0.74305723387334277 20 48 23 150 98 92
4862 0.48306334044117377 1.8437292066520148 3.0686586918474146 148 99 72 0.12362768621851876 20 226 23 301 98 241
4863 -0.7913762428543345 1.7166124421957165 1.3087853030057033 217 3 1 0.071165505653823236 20 6 23 383
4865 -0.02956956740371143 2.7712304546921351 1.7175223025627522 73 83 84 0.37778141510932473 20 759 23 507
5406 0.22218157634522073 2.5430487011795395 1.8926542583418575 33 28 26 0.6675502127854388 98 965 75 466 92 723
3049 -0.21348719476191097 2.09632505335435 2.7888544598090328 63 43 37 0.13319227346168067 8 516 81 877 24 423
4866 0.77128447396663136 2.2875955443877398 2.4069762347879826 226 212 176 0.051328463629425523 20 611 23 609
4867 0.41078371660214202 2.0051712077581803 2.8903656790853915 242 222 176 0.56204465803568637 70 423 93 136 23 765 84 264 42 536
4868 0.62944729430632007 1.8834594087902561 3.0487437085051949 232 218 181 0.65956796451543487 70 494 23 829 42 606 98 787 75 289
4874 0.91278324826563018 2.1322458929339101 2.5940448262130644 247 222 172 0.26607808415383943 70 654 23 1087 42 706
4876 0.0045450772042343046 1.9075905891746729 2.8966505031105592 0 0 0 0.67415039899284457 48 1183 23 1155
4308 -0.147584565518009 2.5228631666715469 1.7059214185142351 58 36 4 0.058691385502704731 79 341 11 529
5417 0.31665240753572488 1.8327519836970243 3.1047552583840234 0 0 0 1.005578730661006 93 316 23 950 92 640 20 1133 70 691 98 910 75 439 98 941
4877 1.2673749379557127 2.3084847482056423 2.349084403231251 232 206 164 0.23734851468505117 20 1194 48 1195 23 1160
4309 -0.63283279319957675 2.8406481871138682 1.3767007585555591 4 4 5 0.16721743829936242 4 845 11 531
5418 0.52606074113014079 1.4317425034896911 1.5796919258069446 255 253 71 0.09661038585114036 75 106 92 459
4879 0.27025698307832752 2.5622786473367318 1.8179787360859221 0 1 3 1.135411927205378 20 1215 23 1177
4880 1.0230145272125706 2.682234813467427 1.9124712969944582 0 0 0 1.8926871819349542 20 1260 23 1200
4881 0.51512591228727733 1.2184161112835206 1.7819225740184899 255 248 78 1.3024902005581394 23 1203 98 973 75 474 92 736
4883 -0.019831481726562294 2.8455606121943156 1.5853445245324851 31 24 24 0.94077374246244827 15 125 66 100 20 212 95 917 32 661 96 1055 89 479 35 223 23 263 93 101 70 88
4884 0.51266370065919342 1.1522094111206704 2.1689009067978597 255 229 61 1.9790160582907046 11 995 48 1204 20 1205 23 1142 93 681 70 731
4886 0.51011072985471673 1.4023025084463865 1.4707618923561774 226 110 10 0.094685512569123831 61 100 5 115 63 83
4887 0.76726956478944208 1.3760640410039287 1.506810615008066 255 166 31 0.33894208565028783 72 44 5 125
4888 -1.026249268476936 2.4147301999975093 2.2038906680525421 14 12 12 1.2452458675246494 27 135 61 250 5 249
4889 -1.074047897151559 2.0299383361795393 1.6292664983203613 107 86 74 0.41542414288804175 9 292 61 403 5 480 52 44
4890 0.19278429946261283 1.9288812915736377 2.1499237183146191 16 9 5 0.80198529443137412 99 344 5 503 52 61 63 619
4895 0.53383163920577581 1.1302176925656959 1.3385647450792078 0 0 0 1.9483382841816279 9 345 61 1000 99 687 5 689 67 541 63 845
4899 0.60787406991308091 1.8196039457040207 3.0666137110919967 238 218 175 0.54113305955094404 61 1043 5 757
2542 -0.97308330553678823 1.7127132486089431 1.3760083736056661 255 237 69 0.55680568490221405 34 1086 54 493 3 1121 43 651
4901 0.15922667779209421 1.1019028687645087 1.9171436823971619 151 127 37 0.85086200742043894 21 361 46 17 13 813 73 422 36 680
2544 0.89460572829251461 1.3493634699280803 1.8094200253269321 225 170 49 0.93092175222574314 34 1110 54 509
4902 -0.75552251886942834 2.9788004430370019 1.4573647731678605 88 97 95 0.21143313297845845 21 843 46 130 13 538 36 184
4905 0.58886332027584909 1.2046293461350386 1.3264371379126187 194 164 53 0.60438802698979199 3 1097 46 378 13 985 73 593 17 1120 36 669
2548 -0.21331594069309096 2.0729070984836069 2.6843740824163298 228 213 176 1.4989369251173987 76 555 54 555 3 1183 43 782 88 727 34 1119 66 933 31 1162 46 471
4906 -1.1145943652008654 2.4182502064161273 2.3356249945032266 85 59 47 0.22550177890746959 81 1184 46 437 24 767
2549 0.20311544860722647 0.82656133782574515 1.9633624235934672 241 226 74 0.74027066746632053 10 984 34 341 54 547 95 1303 96 1235 16 866 41 1351 35 558 28 337 51 368 89 1140 97 677 69 1091 59 456 21 1076
4907 -0.76117269522858888 3.093170833436476 1.1069278836043759 0 0 0 0.93683778163932463 3 1185 76 566 46 474
4908 0.29741935839308098 1.0015719485204302 2.1611845227044046 236 172 46 0.070393228267640426 17 371 13 12 36 12
2551 0.96046580712908169 2.5034223597707932 1.9553852915351444 106 73 62 0.10288235150808366 10 123 3 62 21 64
4909 0.1410580684244242 1.9080607365835154 2.9152649448889831 46 27 19 0.2260199237990225 17 248 13 207 36 150
2552 0.61194372384978912 1.9410942036306276 2.9542410766580351 231 216 180 0.35560667431934262 34 372 3 71 43 63 8 713 44 770
4911 -0.94923194772329511 2.3405553653909759 2.1584157994498057 63 67 81 0.28183500509874504 17 292 13 288 36 200
2554 -0.56103554698741398 2.9818347052232563 1.3255126542266003 105 74 61 0.22438799981937044 10 344 3 271 21 277
4913 -1.1342864046400383 2.3737587454874842 2.4044578240557763 62 40 30 0.23431668605326661 17 341 13 337 36 239
2556 0.53606423006239301 1.8643999727457792 3.060923276663337 229 215 180 0.46924755364801185 34 371 3 393 43 251 31 696 8 904 81 1013 24 573 44 923 85 636 100 964 38 842 29 817 30 810 58 896 72 907 68 860 17 825 13 181
4914 0.20132830652113071 1.7018993084225476 1.7254555304745356 54 54 63 0.13018372323688665 17 381 13 402 73 24
2557 0.20873622106872375 1.9239604232520904 2.8909654969184344 151 104 80 0.3011269204121787 34 651 3 417 43 298 31 737 8 757 90 327 85 404 84 137
4915 0.16184574005109809 1.7262221388967376 1.7189754080513522 191 130 34 0.14505653621983272 17 384 13 403 73 25
2558 -0.10321432178185244 2.0781240802768739 2.7924016287835465 227 212 173 0.53470027330671321 54 116 3 477 43 337 88 319 66 593 31 758 8 765 90 298 81 871 24 419 44 889 85 467 100 753 68 821 55 238 18 685 84 76 70 98 42 340
4916 -0.30094118742316978 1.5822623597780887 1.9603666992037108 125 107 70 0.403758131836572 17 410 13 422 73 33
4917 -0.79334875564045682 1.7079189115756677 1.6505346263223946 93 85 81 0.28251191633048151 17 426 13 429 73 43 36 57
2560 -1.2829387215890893 2.5870844345966049 2.1435385008129653 120 118 102 0.14433404858420965 34 576 3 614 21 832
4918 0.25448284843382052 1.9291301741111293 2.8762125119492117 232 215 176 0.77735012395302439 17 829 13 496 73 103
2561 2.0555088596715612 9.5350903683527175 8.1722362664687562 118 118 106 2.1243559418398039 34 542 3 631
4919 0.1246364192591064 1.8958823122281303 2.9500813089436719 44 26 18 0.24572051362664799 17 582 13 506 73 108 36 401
2562 0.41615893970618595 1.994169433165677 2.9059000389438339 232 216 177 0.57446838662078559 54 254 3 694 46 65
4920 -0.30062359850597153 2.2124069064101799 2.4882696214296178 140 134 150 0.27119351336915898 17 259 13 525 73 126 36 636
2563 -0.25363506520301793 1.5852421118464051 2.2378221175143209 229 213 175 2.9175954271629037 54 275 3 704
4921 -0.29295597491002506 2.0874910249257645 2.7596815614735002 46 31 28 0.35106608958085161 17 599 13 539 73 139 36 431
2564 -0.70508575286316666 1.6357704282350483 1.4631358048838408 255 233 74 0.43523878605877375 54 306 3 740 59 73 21 411
4922 -1.1254669144449201 2.350006978583417 2.4050521316570252 147 97 69 0.20266039707758923 17 336 13 614 73 204
2565 -0.18843311218655706 1.9692593699435359 2.8385066369521486 0 0 0 1.4364392645912183 10 718 3 744
4923 -1.2838992987618563 2.5879660331770493 2.141839469842183 116 114 101 0.23307092036554594 17 334 13 626 73 221 36 244
4924 0.054447303286254078 1.1438744420115565 1.7762033858290891 25 25 26 0.49680157216647924 17 637 13 645 73 247 36 7
2567 -0.95221205575895396 2.0120457550072781 1.7936989266985497 253 221 62 0.13815428681634886 54 170 3 781 43 377
4925 0.15909324355609744 1.0540334371023907 1.9395550155475145 123 102 26 0.57191690023772612 17 639 13 647 73 249 36 509
2568 -0.87917715630112592 2.3835903160109977 2.4204360917010153 66 64 62 0.38960761279854494 54 175 3 801 31 780 8 919 81 1037 44 669 100 665
4926 0.15909324355609744 1.0540334371023907 1.9395550155475145 123 102 26 0.57191690023772612 17 638 13 648 73 250 36 508
2569 -0.57862267823385505 3.0311074720267888 1.2994368973502124 115 80 64 0.33006773420200985 76 162 3 803 43 366 59 170
4927 -1.1185610532087562 1.79287331245175 1.4381299885238537 66 64 69 0.38399592246603831 17 683 13 678 73 283 36 533
2570 -1.1441130536128192 2.7665154482532976 1.7915010901965853 133 126 107 0.28717940989996998 34 779 3 842 21 649 64 785 46 165
4928 2.2919082302490321 3.7874253189113296 0.64721359999343941 66 64 69 2.71805646375336 18 229 13 679
2571 -0.29038288578697713 2.1677620263208635 2.6872245872605833 83 53 39 0.63499389274671714 54 299 3 935 43 611 31 1019 8 986 90 431 44 989 85 457 84 233
4929 -0.83755409083395649 2.0221240477101547 1.7080886264397201 153 146 160 0.57928994923070831 17 957 13 725 73 327
4930 -0.95601297046114753 2.3147799311740549 2.1397105649511912 146 135 146 0.089253991113712197 17 600 13 759 73 372 36 643
2573 -0.45959792011672707 2.1898550357135282 2.5955735718599975 51 28 18 0.72993579750675475 54 318 3 948 43 621 31 1023 8 989 81 1032 24 597 44 717 85 266 100 517 38 405 29 384 30 389 77 268 46 272
4931 -1.2198596594970121 1.937378854744872 2.5010431693720676 41 26 20 1.8513961002605333 55 255 13 770 73 384
2574 -0.78001476543541282 2.298314055561947 2.4635600452875526 89 61 51 0.80787355528800697 54 349 3 969 31 930 81 1035 24 606 85 249 100 500 38 375 29 477 30 367 58 386 72 191 68 515 27 185 84 37 67 203 63 461
4932 -1.3604401908666486 2.7301452327139697 1.897518960789236 188 178 151 0.44159037719308436 46 184 13 793 73 220 36 241
2575 -0.83533861580212077 2.3894577880451653 2.4095812138050343 213 197 160 0.52926719933433086 54 355 3 976 43 531 90 244
4933 0.021385241379132863 1.2357328598899415 1.7814534976448051 28 28 28 0.34563156419510971 46 222 13 816 73 425 36 681
2576 -1.1650991007196037 2.1886001597083751 1.6354078567559853 105 63 9 0.41750840311328069 76 161 3 982 46 280
4934 -0.83063962982145867 1.6499884489084908 1.2459861129350251 246 0 0 0.57881346941516421 18 713 13 821 73 429
2577 -1.0255814402408416 2.4544616428108248 2.3161457653918314 212 197 162 0.3865457367621094 54 365 3 988 43 543 31 935 81 1129 8 991 24 712 44 972 85 608 100 947 46 297
4935 0.10403864140775029 1.7755780383085571 1.4681717401786201 21 21 24 0.56043083396698323 46 231 13 823 73 432 36 690
2578 -1.4274627852061386 2.5664330376527285 2.1668132248792347 226 213 179 0.60873124032650039 54 390 3 1012 43 559 21 982 64 912
4936 -0.91613875422937108 1.7545339953253007 1.1826136433173968 255 241 71 1.6169412790515481 17 1096 13 826 73 531
2579 -0.24730130296226291 2.9416480784224661 1.3810031405973158 0 0 0 0.65811774237914122 54 436 3 1069 31 607 59 324
4937 -0.55070222833961036 1.8503392712587146 1.8963156014812841 159 103 20 1.2214185286465378 55 326 13 852 73 461
2580 -0.45515113875465146 2.85615817533336 1.2323289994387807 0 0 0 1.8026126811374297 54 440 3 1071 88 523
4938 1.0263698852140526 2.0421250207426924 2.7196019485382239 249 226 181 0.39447671683218966 17 1045 13 860 36 810
2581 -0.24431014046125238 2.1163576896174265 2.7263040981451088 228 213 177 0.76406275828634818 54 487 3 1118 43 608 31 1018 8 990 90 606 82 882 81 1179 24 763 44 990 85 630 100 867 38 839 29 814 77 371 12 774 55 376 18 807 17 1070 46 403 13 883 73 573 36 759 84 366 42 731 67 473
4940 -1.3175457922579858 2.4289105299779341 2.459287300921043 0 0 0 2.1607095856718743 18 951 13 978
2583 -1.4003876303415193 2.5671939385004179 2.143030967169556 194 184 155 0.55603444294658022 76 585 3 1205 21 1194 54 577
4941 1.0574808068137003 1.9848175533805197 2.7822477367473839 0 0 0 1.593622320582692 55 521 13 1016 36 861
4942 -0.11126857918649066 1.9903114636013517 2.3789244582891333 25 23 20 1.6961850317394307 55 495 13 1021 73 620
2585 -0.88526291586423067 1.7391471955528455 1.4450945978158529 255 235 73 1.7755116278172569 76 564 3 1184 31 1161 43 790 8 1106
4943 0.65272430472720044 1.7882485210266577 3.0945046725670866 203 179 138 1.8352762727411347 18 982 13 1022 36 818
2586 0.66427705796097536 1.9079979043899264 3.0190108999997327 211 192 153 2.6862335557088595 76 568 3 1192
4944 -0.2558723052834303 2.2317404788331863 2.5510465604593668 18 17 14 0.62759807515936172 55 528 13 1052 73 652 36 893
2587 0.67337910790978572 1.2757682394352567 1.9216865615555376 209 134 31 0.14212680392540275 25 424 43 21 31 349 81 475 24 34
4946 -0.33214350517003272 2.1545565735750469 2.4015174694427093 79 85 103 1.481796016767049 55 581 13 1085 18 1023 73 679 36 933
2589 0.44031728962068223 1.9434065048252589 2.952863368051148 224 210 175 0.35574105930732652 82 353 43 79 31 459 8 502 90 343 81 592 24 146 44 772 85 411 100 776 38 658 29 629 30 641 58 499 77 288 84 185 42 426
4947 -1.1621196835665313 2.2136770534489703 1.7843566018697594 248 188 50 0.71857942650718798 17 1196 13 1093 73 686 36 930
2590 0.21332265902853659 1.8128449891827474 1.9175256138284353 127 93 21 0.29780662177394862 34 421 43 80 88 175 66 343 31 99 8 111
4949 -1.0913881439102426 2.3976613908352555 2.5365582891705345 0 0 0 1.3712027942543892 18 899 13 975 72 884 12 760 55 469
2592 -0.27209915687686476 1.6185872784875608 1.8571643297385561 114 74 16 0.48788792382636376 82 164 43 102 44 389 100 386
4950 0.25313845161188758 1.1252585561532134 1.5768417077052708 152 153 157 0.030530089554437617 13 1 73 2 36 262
4951 0.18568543658920966 0.9433131620651859 2.0882519146751846 255 209 56 0.17861059463032283 13 380 73 6 36 266
4952 0.097247435966182627 0.99728356185162315 2.0245545931639821 154 122 36 0.31345184100881368 13 649 73 7 36 510
2595 -0.49408338173045274 2.0995723665848995 1.3084438764260766 251 212 64 0.43974575156255846 43 121 59 413
4953 0.075358680644127957 1.5340331869429971 1.4271958598566559 110 69 8 0.10620600355600546 13 382 73 9 36 269
4954 0.18969558067019854 1.1525564353741551 2.1328943423897151 123 84 16 0.12515537644819441 13 391 73 11 36 275
2597 -0.49425559972683047 2.1963452161505503 2.6068982872531739 132 89 66 0.2189085258036057 3 537 43 133 31 518 8 514 81 623 24 180 44 517 85 141
4955 0.15885635710078422 1.5842887431561663 1.5310598735368475 50 47 48 0.0719210950245463 13 388 73 12 36 276
2598 -0.48458817516400621 2.3876709621881251 1.7776883924817721 167 137 46 2.6012174619991386 34 517 43 136
4956 0.15885635710078422 1.5842887431561663 1.5310598735368475 50 47 48 0.0719210950245463 13 387 73 13 36 277
2599 -1.0379684358704631 1.7330428332920422 1.3834474323329258 169 122 29 0.62680705640785483 34 533 82 266 43 167
4957 0.32519238089846969 1.5267426235050063 1.7026405033453578 42 44 52 0.081311315570463297 13 392 73 14 36 282
2600 0.53762900689408433 1.2784492048866509 1.3711609970778309 171 138 35 0.086830963605049785 82 549 43 200 31 311
4958 0.24388068582985861 1.6075070658534387 1.7018295207375678 183 132 36 0.12001245264595013 13 396 73 17 36 291
2601 0.50170735655921739 1.2458257281094163 1.4254618476307943 168 138 36 0.15802398186482827 82 547 43 202 31 316 8 302 81 437 24 3
4959 0.24388068582985933 1.6075070658534392 1.7018295207375675 183 132 36 0.12001245264597503 13 397 73 18 36 290
2602 0.23872380486424694 1.019697754657217 1.8389536060030811 124 107 31 0.31514262352824235 82 534 43 226 31 591 8 590
4960 0.19966792747734236 1.6663805328175574 1.7111228829533547 192 133 35 0.094624783347513897 13 399 73 21 36 298
4961 0.20132830652113093 1.7018993084225476 1.7254555304745358 52 52 60 0.13018372323690011 13 401 17 380 73 23
2604 0.67212546980029075 1.8231774559981759 3.1234907015501836 226 213 178 0.58727808289980143 3 382 34 356 43 239 31 676 8 750 90 569 81 816 24 373 44 926 85 567 100 892 38 773 29 749 30 761 58 825 77 383 68 963 84 328 42 630
4962 -0.74597589866727909 1.6589270878211808 1.5998199927089463 66 67 81 0.12096718150810903 13 418 73 28 36 306
2605 0.50593273223245205 1.860106675139086 3.0989904775757768 70 50 43 0.49445918862200322 82 552 43 253 31 710 8 758 90 351
4964 -0.76497575888433067 1.7154424882658801 1.5868696557173858 105 64 9 0.1551165214996397 13 421 73 34 36 313
2607 0.38383506857787941 1.9712881976986889 2.9359595574323092 226 211 175 0.147318355197746 3 404 43 273 31 705 8 744 81 832 24 385
4965 -1.1517358105319091 1.7891977492193321 1.3304111250979518 241 190 50 0.11850466453731655 13 423 73 37 36 305
4967 -0.15202047524206663 1.8625487987707841 1.8872953653811253 124 97 24 0.14888329893741045 13 683 73 49 36 340
4968 0.10828794248129028 1.8071145241029081 2.1308254704824625 227 168 44 0.13567617734021509 13 688 73 53 36 582
2611 7.6798246048519347 18.296449263269778 17.157428885276104 230 214 176 2.6927589213070009 53 78 43 315
4969 -0.25240974148825834 1.7464072024522119 2.0504061685780588 166 103 16 0.071498527063882281 13 440 73 54 36 346
2612 -0.20634160648436495 1.8872419015152708 1.8350086824616114 170 138 40 0.16361083189759409 82 623 43 330 31 639
4971 -0.23055862455877418 1.7648063789951087 2.0838346026056969 255 198 54 0.045151652138292496 13 445 73 58 36 351
2614 -0.12281800514149628 1.9355078219189186 2.4959879749366194 227 209 170 0.19310310431993799 3 442 43 333
4972 -0.23415413521293585 1.8010021914418646 2.0988314292350281 34 30 34 0.054192806215539534 13 447 73 62 36 356
2615 -0.37329105849355687 2.1718286206763597 2.6364528448451994 104 69 54 0.62270891317296329 54 132 43 350 88 339 31 767 8 764 90 282 44 738 85 274 38 565 30 400
4973 -0.26332233410409056 1.8262289630286426 2.1035571263138277 252 196 54 0.073075257395454174 13 450 73 65 36 362
2616 -0.52224171246801365 1.9250834544372708 1.8770522599531894 79 57 45 0.05696883456802683 82 442 43 351
4974 -0.27309218325957318 1.8464930882939021 2.0878425664618772 103 61 8 0.17456612190686824 13 452 73 67 36 90
2617 -0.89322525397122154 1.983259656253209 1.8180125444151598 254 216 63 0.59345690998200562 3 773 43 375 66 275
4975 -0.63059199507083075 1.9406505859382985 1.7805003734312217 112 72 10 0.22509680597722834 13 451 73 68 36 355
2618 1.0025273326751825 1.4665393627764347 2.0419964588763535 255 246 77 3.0919023727526787 25 786 43 406
4977 -0.68124043913446886 1.91416399844596 1.9670681013299467 189 195 218 0.24267891641598113 13 468 73 79 36 373
4978 -1.1584543189017129 2.0145723453102402 1.5993755090690982 79 80 99 0.061540830971439843 13 471 73 80 36 366
4979 -0.91841277650069864 2.3290742849527635 1.3950052387449832 54 53 58 0.10917608280839207 13 728 73 82 36 602
4980 -0.94549299380748808 2.3810938699912656 1.3240665517311292 160 122 28 0.11935646733983053 13 479 73 84 36 375
2623 0.42064521874883626 1.1839318740845464 1.5231388787349935 145 131 43 0.31512768864888485 34 821 43 426 88 434 66 758
4982 -1.1036353860374475 2.1052387465480642 1.6357859148574148 153 91 25 0.127954952395576 13 486 73 90 36 606
2625 0.635666485285453 1.7553085140142421 3.2681392299073666 0 0 0 1.6034417489981205 76 379 43 451 47 843 87 1251
4983 -0.17541309386009513 1.9166958382519117 2.4855325771697387 7 6 7 0.42408530899656571 13 736 73 94 36 383
4984 -0.18771098286779098 1.9014659436706278 2.5357117040087105 231 207 161 2.798023068175433 17 828 73 95
4985 -0.73566501738201961 2.043314160899667 2.0200477947122315 254 237 59 0.16632143735979849 13 490 73 97 36 123
2628 0.092277654671046594 1.8299376726592813 1.881296111916587 158 119 34 0.19288897702093064 82 767 43 466 88 584 66 852 31 853
4986 0.34383109131363709 1.850669586604083 3.0397790218456393 152 103 78 0.14838914869835926 13 497 73 104 36 396
2629 0.14214705848324227 2.0084470280436006 2.8598928847298319 78 56 49 0.42524529692271973 76 270 43 473 88 448 31 903 8 905 81 857 24 406 24 577 85 392
4988 -0.12346266658678667 2.0878087176064857 2.5244119590894423 9 7 7 0.064525506886951731 13 502 73 107 36 394
2631 -0.25592346783701669 2.185166683013775 2.6409116750762984 224 208 171 0.56639081642756117 54 128 43 504 31 919 8 980 81 1113 24 689 44 985 90 290 100 960 38 838 77 454 55 371 17 981 13 884 73 488
4989 -1.227052187458378 2.2177198110465057 1.7044916232556795 79 87 108 0.12680711178684564 13 213 73 113 36 130
4990 0.080603591391472856 2.015347080826924 2.8463263131763576 49 32 25 0.18232991745848157 13 746 73 115 36 406
2633 -0.31896423579375788 2.2094963074521092 2.618995096965135 222 207 170 0.35281765607331933 54 305 43 508 31 1017 8 981 81 1114 24 692 44 1048 100 959 38 887 85 692 58 890 77 453 68 951 55 372 17 984
4991 -1.0909838478775982 2.3834868464288159 1.6314747959644982 77 59 10 0.17539021847150804 13 220 73 118 36 132
2634 -0.44902011089403937 2.2458347847765077 2.5588237602925892 217 202 164 0.66846820928358064 3 951 43 515 31 924 8 908 81 1030 24 696 44 981 85 623 100 957 38 835 77 364 68 750 27 629 12 643
4992 -0.2229898130601532 2.1398251469721306 2.5391282301276603 5 5 6 0.41850138688683014 13 512 17 578 73 120 36 407
2635 -0.82630366212470863 2.3216087624140576 2.4435619901872081 69 47 42 0.68116490785863815 54 352 43 529 31 931 8 920 90 247 24 608 44 680 85 87 29 475
4994 -0.13732178121547128 2.1517637723637728 2.6352572004591783 233 214 172 0.098149214988956845 13 520 73 124
2637 -0.96122492212808108 2.4258856987084108 2.3421990112235567 210 195 159 0.33734650580207287 54 362 43 539 31 933 8 914 81 1128 24 710 44 974 100 949 38 827
4995 -0.22483772604167204 2.1975269600163481 2.5382275158256529 8 6 7 0.22637020336822097 13 523 73 125 36 417
2638 0.23479376188531276 1.0835301598597216 1.6862243860199129 191 204 234 0.089820528409686198 82 857 43 580 31 1051
4996 -0.15754094446153971 2.0452861878925068 2.8169451087556707 46 31 26 0.15652384084099927 13 751 73 129 36 422
2639 0.42891382228453406 1.8190102973388056 3.0891276431473731 155 104 77 0.6780410982821562 82 734 43 593 31 897 90 690
3956 0.67682271596411447 1.8054256415239247 3.2784960075461838 0 0 0 1.7447051511949365 30 765 44 780 81 851 38 667 29 641 77 478 27 751 12 720
5065 0.1751166490119499 1.298191016096629 1.9669904874396249 43 40 43 0.13984466258479397 13 818 73 428 36 778
3957 -0.24638330349001764 1.747882125304054 2.0501715641226141 191 111 18 0.20578212460039658 77 130 72 121 68 392 71 525
5066 -0.6968831817550416 1.8004010393374958 1.7045745209318917 247 185 49 0.07815637773926036 13 844 73 450 36 704
2709 0.47339685086928457 1.110046584783126 2.202119895166502 254 206 60 0.12980421860080696 25 361 66 179 47 394
3959 1.2438038418160047 2.4177269755697846 2.0947073289335303 149 92 60 0.20708460889703306 30 194 72 195 27 405
5068 -0.66217050830542501 1.8543276127594068 1.7484884745658442 254 197 53 0.073267036873323435 13 848 73 455 36 711
2711 -1.3328663153409983 2.5074218003117243 2.2747161082193741 207 196 164 0.086815484545104862 88 248 66 263 47 226
3961 -0.061014148711996098 2.0343305709350012 2.8387167072554553 102 71 53 0.66118486472051818 58 193 72 219 68 260 27 489 67 230
5070 -0.53611756712968472 1.9138765716450679 2.0316125514480929 44 38 35 0.26308769829211404 13 862 73 469 36 724
2713 -0.68630202231212367 2.3932677109888205 2.1192493169301971 253 244 62 1.8563229784576245 87 783 88 228 66 288
3962 0.85991388487930087 2.0968395084837343 2.6701088613730257 207 182 137 0.2431374323010973 58 199 72 220 27 243
5071 -0.91013172071284809 2.2813331371571084 1.3949385269665038 185 138 31 0.10933714818363012 13 863 73 470 36 722
2714 0.011351931506613677 1.8741166628058958 1.7712746035064331 100 97 106 0.15015346773302521 88 185 66 331 8 392
3963 0.85991388487930087 2.0968395084837343 2.6701088613730257 207 182 137 0.2431374323010973 58 198 72 221 27 244
5072 -0.93760122912524468 2.3031017086477577 1.362741143813434 187 138 32 0.097784848005253819 13 864 73 471 36 723
2715 0.031225329051344841 1.8404197399144588 1.4773130368953609 114 122 147 0.39763152797389356 53 121 88 340 66 332
3965 -0.11081765910949286 1.3056007762765178 1.8712217103920721 97 83 87 0.21877963098573033 77 78 72 268 68 327 9 9 71 476 6 182 99 472
5074 -0.60749276674186103 2.0163110184005597 2.028865752727516 131 112 89 0.37120861298483304 13 869 73 475 36 732
2717 0.49859837910068244 1.1071246757788997 2.1935527235776227 174 111 33 0.13749490634628952 88 14 66 408 47 408 90 176
3972 0.93708730756514469 2.4809266711625484 2.0110317548675445 106 76 65 0.41505312929648991 58 597 72 390 68 200 27 354 71 158 61 494
5081 -0.016823507515284886 0.8289281490129855 1.8969231577978956 163 140 51 0.58026333044783096 13 909 73 517
2724 0.095003985805040631 1.9996098590239284 2.8712753123060355 108 74 60 0.63242497382279783 88 295 66 601 31 744 8 759 90 317 81 606 24 166 44 292
3973 0.11169680337880755 2.3545577644131699 2.3070460743533929 246 214 161 0.12017432409649463 58 603 72 420 68 698 27 625 12 397 71 431 6 154
5082 0.15101256702065685 1.3083743507397148 1.464701089809908 125 116 46 1.8350152069189949 13 910 73 519 36 771
2725 0.15515694459986284 1.4880548245496192 1.4877332624859474 65 71 93 0.28153801419717184 88 178 66 604 8 549 47 498 15 525 90 57 44 317
3976 0.91142119385138076 2.4604444495088678 2.0922731032513968 234 216 178 0.15889341225592341 58 600 72 642 27 633 12 652
5085 0.33515695106744292 1.5470411031397813 1.6530036061091429 147 125 44 0.11558037356372342 13 918 73 524 36 779
2728 -1.4247737948037509 2.5867686741701656 2.1847469857157549 230 214 174 0.27762890827158759 88 533 66 676 85 215
3977 0.11267913612209166 2.2866392425563911 2.4657152934865896 253 225 170 0.062893474561132659 58 629 72 666 68 737
5086 0.26603860295982479 1.6145087960947189 1.7460847611338672 205 138 37 0.37112625010429506 13 924 73 527 36 786
3978 -1.1712793560108519 2.1337242583870015 1.6833290753693793 255 228 69 0.42961716316888482 77 417 72 833 68 898 27 768 12 735 61 872 71 777 9 295 6 497 99 646
5087 -0.79830405681610483 1.6793151350225157 1.4746928473927918 255 200 56 1.1787178261481923 13 830 73 533 36 527
4546 -0.92199520991094652 1.9658489675465343 1.8424321900757525 253 244 64 0.35726171172355348 71 521 6 394 18 849 55 338
3995 -0.10380634076066679 2.0787409316296523 2.4123393582541914 47 47 51 1.8044611078859101 58 1011 72 1067 68 1156 61 1076 77 592 71 899
5104 -0.011432615873373769 1.5392318628130055 2.0920610435466926 226 168 45 0.18145507112080919 13 1000 73 606 36 846
2747 -0.014958453674633485 1.9156391948424263 1.779683371932657 30 25 28 0.5641195606983811 88 685 66 938 24 491 81 945
4563 0.48479129117210223 2.585381735263633 1.8640065282412279 126 78 52 0.39334241442128759 71 841 6 578
4249 -0.26421258760557181 1.7923818276083745 2.0675350843404638 255 197 53 0.20136734586595056 68 922 71 781 6 500 99 643 18 842 55 327 17 943
5358 0.29444359494740768 1.1009802166347535 2.1341669619513794 159 101 21 1.3373592765837636 23 1183 70 747 98 947 75 446 92 702
3001 -0.89507692057538391 1.9651541821869323 1.8128041975178171 254 220 58 0.25044286469000498 8 482 81 593 24 141
4817 -1.0555638353925378 2.2203397363953905 1.9549728117049769 57 55 60 1.3662550621176979 18 1013 55 585 13 1106 73 700 36 931
4855 -1.0765219431181781 2.1004140288346331 1.7275500832806023 255 229 65 0.29843328384138929 55 433 17 1113 13 956 73 557 36 807
4003 -0.702477406525571 1.6248893039983199 1.5273689115109135 255 246 62 0.078229019215119863 72 36 68 28 27 33 12 38
5112 0.18724464670862301 1.2073809909665711 1.9164186665537379 102 64 12 0.18284360732713856 13 1032 73 631 36 875
2755 -0.818268054669258 1.9139979343931781 1.4642577987311798 255 237 66 1.3923527621460141 88 796 66 1031 90 764 47 986
4571 -1.0760196810628342 1.7857057978874478 1.3365895181620744 250 213 58 0.1660078988119694 9 491 6 646
3960 1.1898432378959267 2.4214388643603626 2.1296222820404958 231 214 176 0.32261303746566067 58 169 72 197 27 232
5069 -0.64193692576570105 1.9034650008098866 1.7974066245364624 254 198 55 0.0921241178436632 13 853 73 463 36 717
2712 -0.75449027100466814 2.7667987000662966 1.2921911668269255 6 6 9 0.57449877039662678 88 251 66 279 90 3
4871 -0.93164519236089238 3.1187527780459012 1.2396439061080444 162 159 142 0.42738013396529156 48 1185 70 608 23 1069
4019 0.069979239485111311 1.9057666126516422 2.1513500905647511 159 94 14 0.21431154572580474 72 352 68 421 61 226 6 86
5128 -1.1423498873627673 2.3023712465316963 1.6425528363895403 81 87 96 0.70500627022056506 13 1084 73 678 36 919
2771 0.4150703957323964 1.1915789209402687 1.5635848775531682 120 104 27 0.23410049760358329 43 33 31 344 8 333
4587 -0.9453678363135305 2.3519921097606176 2.15482480302206 82 64 59 0.11287609111370384 71 182 99 133
5001 -0.79523245816115873 3.0583056459283595 1.3581317272110616 101 101 88 0.10138733460436482 13 542 73 145 36 427
2644 -0.80515921340001695 1.9694198388566773 1.9048767317245205 184 120 35 1.5066483038177481 3 1171 43 743 31 1147
3964 -0.81439906609613222 1.7219452051555861 1.3338535165508383 255 234 64 0.17351530310688734 58 219 72 235 12 3
5073 0.87716505091378716 1.9105661693799734 3.0061382359054138 207 185 144 0.4387961154980799 13 948 73 474 36 737
2716 0.28896304525248168 1.8284783239168498 1.9410330140987868 15 8 3 0.14053822058399634 88 312 66 346 31 403 8 579
4875 -0.96260251652659368 2.6019893061152755 1.2784050647384448 62 68 82 0.36112116811892625 20 1204 23 1105
4023 0.017598452070557213 2.1096930101151141 2.2312861710291791 168 97 15 0.19687953018585838 72 166 68 448 71 395 6 108
5132 0.30458002163695741 1.8451951810042337 1.3254708689046186 0 0 0 1.6963286784632963 13 1100 73 692 36 925
2775 -0.74773973491351309 1.7152416766150127 1.3377244153925723 255 227 69 0.13486529871215233 43 141 31 458 8 409
4591 -0.23462540001674104 2.1212677905356792 2.4456131381122632 82 61 53 0.057071918740805284 6 150 99 409
4872 0.63066855023731661 1.7179784859144389 3.1639546960250975 0 0 0 0.43859536925756859 48 1051 23 1080 92 643
5386 0.17519713606804099 0.96538124883209053 2.0965156832870968 255 255 96 0.58585674951690514 98 918 75 418 92 684
4845 -0.49880563318464571 1.8508554297777962 1.8502912692329785 252 197 52 1.4119796774825932 55 419 17 1042 73 459
5005 -0.86946450165695799 2.9502851966077359 1.5401444551460821 114 114 101 0.067365163730669073 13 559 73 161 36 442
2648 -1.1692905163899814 2.8190828332547833 1.6864595699545704 124 124 115 1.3831692274552252 95 1276 16 766 41 1424 56 1420 69 1173 82 955 10 1077 34 1035 43 552 69 931 10 975 76 359 54 387 3 1007 46 311
4241 -0.45015204565452066 2.5797274461303501 1.9970002263113551 113 69 7 0.1662873650895258 35 168 71 413
5350 -0.32817623346187375 2.1208537591025087 2.7396130321016061 77 51 40 0.49771227333654861 23 484 98 561 75 56
2993 0.14582613744833789 1.0169768656314724 1.8191236381178908 68 68 70 0.34084565358302549 31 404 81 68 44 398
4809 -0.9590821860623977 2.1190015466630063 1.898435312529301 255 196 52 1.1301535337509636 18 998 55 558 17 1185
4966 -0.81741283333876846 1.7388856828303525 1.665175010703587 176 181 206 0.1034126894506024 13 431 73 45 36 327
5223 0.51945704905317269 1.8883464489809123 3.0572612526441652 226 211 173 0.45650595322527726 61 349 67 411 52 107
2866 0.55065421721607444 1.9631314638777959 2.9271325434881414 229 215 180 0.20271608332653726 31 662 8 720 44 769
4682 0.58137513876977542 1.1819507043069306 1.2776381610551408 0 0 0 1.3911822500940252 26 475 28 169 86 497
4246 -0.83868573455229201 1.97018195813745 1.8971475072614254 167 93 10 0.21176159158483843 68 149 71 526 6 241 99 320
5355 0.24597519765144832 1.827901183062639 2.0779097030632672 184 138 37 0.58882574729855808 63 800 98 860 75 360 92 622
4814 -0.053768168331527783 1.8533314653341599 1.5196085303332043 199 154 38 0.57369615310306088 24 827 81 1238 55 566
3969 0.14443946908062399 1.8337531496113963 2.1554640219813423 13 11 13 0.47080688512166419 58 582 72 349 68 413 27 139 61 221 71 367 6 83 99 539 18 241 5 223
5078 -1.2719149708609643 2.810432579528122 1.7354848704228487 153 139 116 0.14379229762298201 13 899 73 498 36 763
2721 -0.59485803848799956 1.9127058901789447 2.0055940261536591 184 189 212 0.39181268920652057 88 353 66 551 31 754 8 676 47 473 90 403
3951 -0.93806020431041826 2.3962321646570013 2.1737625173203172 121 121 137 0.42171777621404954 58 971 77 547 12 914 27 930
5060 -1.6161513189087819 2.5603064647849854 2.2241467715169834 105 107 99 0.40458798580585914 13 799 73 406 36 767
2703 -0.8738455358398256 1.7844576815052231 1.2356942777216973 175 131 41 0.12666038132603982 43 158 66 8 47 2
4970 -0.19880567694319223 1.8735434361364987 1.9565915697190592 28 19 15 0.14076316393869134 13 443 73 57 36 584
2613 -0.042589489997264238 2.0605748157125272 2.8149451002443704 223 209 172 0.38586076278633624 3 465 43 332 88 317 66 596 31 753 8 762 90 304 81 868 24 418 44 765 85 359 100 754 38 628 29 584 30 588 58 478 84 91 42 353 98 466 75 66
4118 -1.2965024966339382 2.2724612268945026 2.0302351469153361 0 0 0 1.0106052710916611 27 966 12 944 67 613 52 289 63 861
5227 1.0126472855649213 1.4518292137138014 1.7205221474000132 0 0 0 0.67370254688048936 12 825 67 519 52 175 63 767
2870 0.17998271440721941 1.9865269760759805 2.8669792208964511 53 37 32 0.38688979333653034 3 714 8 754 44 524 85 398 100 764 38 642 29 604 30 614 58 486 84 246 90 452
5349 0.31273818010510496 2.1848046855001551 2.1122548035416644 181 179 190 0.3224033270461244 23 686 98 558 75 53 92 561
2992 0.49637512558504021 1.1367230053981405 1.4259269921976265 145 126 35 0.094482632833808561 31 10 81 1
4808 -1.4088783168768382 2.6601371950517532 1.9399863334964536 164 153 126 1.3588451493991929 18 936 31 1098 55 530 34 1036 82 952
3971 0.024417336532348399 2.0107475656948552 2.1794549684529922 246 180 44 0.14645920385403777 58 344 72 361 68 665 27 333 12 374 71 549 9 73 6 416 99 554
5080 -0.23849133442230749 3.5541581411402836 2.1619151469894184 226 211 173 0.47147839586330731 13 907 73 508
4861 0.49479845032223907 1.0527123729699523 2.2200262009649614 254 254 82 0.24032448326302921 20 76 23 161 98 407
4266 -0.55266558750415795 2.102979402724396 1.9811598457717798 83 65 61 0.60630395377252944 71 786 9 313 6 574 99 773
5375 0.25132809449395432 1.1883194648946969 1.9196922716304516 255 244 74 0.32294005921533969 98 836 75 331 92 606
4834 -0.99820228783302034 2.6197614901231638 1.2759289627178638 111 120 146 0.23921173033791607 55 330 17 962 13 1024 73 564 36 814
4897 -0.070874962983876855 2.4031444196997902 2.2393749455177638 137 99 68 0.96752378781895443 61 995 5 740 52 229
4045 0.64147278414708686 1.214099011381343 1.3632725546576965 255 247 72 0.38823440684512778 77 294 68 862 71 458
5154 -1.0096212694061444 2.3668559550377277 2.1255123443564945 68 67 77 0.1816476691074449 18 440 36 443
4613 0.11072454460891556 4.5229765884851103 0.72988909018630033 64 57 56 1.8767900366200303 71 187 18 408
3918 1.2921301159306522 2.399175213179682 1.9712838862140465 0 0 0 0.98988740290282173 30 916 58 1017 72 1066 68 1162 27 967 12 945 61 1070 84 480
5027 -0.14621593343411263 1.3345270583262865 1.9241963497726717 102 101 110 0.14183467133576358 13 661 73 266 36 523
2670 0.51915687389895471 2.6206154351173354 1.8632443047904672 90 58 46 0.095932937091740708 14 1241 88 478 66 754
3970 0.19841993452922146 1.8954740212695644 2.163228662676548 13 12 13 0.59706692868838518 58 124 72 356 68 422 27 148
5079 -1.4093138342312383 2.4347517060229582 2.1852064668127 221 208 171 1.9970929308265404 13 904 17 1080 73 504
2722 -0.28469378388532718 1.5867009372223349 1.9597944648894126 92 85 80 0.22367025964927692 88 192 66 569 90 54
3952 -0.29075399883329356 2.0744184713445528 2.4324044062692791 124 123 138 1.3439034692365253 58 999 77 583 72 1056 68 1157 9 496 99 846 17 1186 73 677 13 1083
5061 0.1361023742368129 0.87082569214033378 1.9648947442279578 152 121 39 0.14551902044201351 13 805 73 411 36 673
2704 -0.41178985151754161 2.1417704631378163 2.7011673972309556 48 32 34 0.050665733889965571 88 190 66 64 47 89
4002 -0.80287452513474977 1.7345774701254739 1.2963531999156896 218 9 1 0.056364316085958682 72 8 68 6
5111 -0.86104441669986209 2.6868585572172021 1.4141148631662661 4 4 5 0.51468437238681908 13 963 73 622 36 866
2754 0.75900835563037905 1.3616832788916753 1.6409657705039777 254 218 63 1.9862761193204244 88 790 66 1029
4981 -1.1281872999284936 2.0299277365568713 1.6642777381941172 158 156 172 0.017900639356731522 13 483 73 88 36 374
2624 0.99916342195202157 2.7833717738254276 1.9537961301746363 0 0 0 1.353626791412561 3 689 43 445
4129 -1.0816275835741846 2.040630064541499 1.6420989662824732 116 90 69 0.10620038465063951 27 73 72 278 12 93
5238 -0.11722417279376805 2.2211572802795652 2.4658702140477438 31 27 20 0.51661095303634375 67 599 52 269 63 842
2881 -0.2199917944404125 2.0973146532933997 2.7964785515699604 57 42 39 0.94619625897980975 31 922 8 923 81 1117 24 700 44 993 85 633 29 859 58 942 77 518 68 1092 6 594 55 503 18 938 67 563
4697 -1.0074896659740789 2.3022289545981258 1.1841751180921245 0 0 0 0.7645818217168201 26 696 86 647 65 513 50 348
4892 0.68541586174422608 1.2507264577976529 1.329681387324209 0 0 0 0.42393900417350733 61 842 72 812 5 569
5025 0.15215868679878031 1.6283315301565553 1.5444065995043554 182 138 37 0.045628315629298338 13 655 73 262 36 519
2668 1.0243722325767224 2.2171641034761245 4.3852413572377644 0 0 0 0.72942634127118255 14 955 25 598
4898 -0.22803421110586855 2.1415046785596021 2.606116161386272 16 16 17 1.1110224005221938 61 1020 5 742
2541 0.64784144607977923 1.3119419688192884 1.3198976834340312 0 0 0 0.82606651790088514 76 453 54 464 43 568 59 494 21 1147
5155 -1.006303226127764 2.3692662131017723 2.1290135175488873 68 67 77 0.4471863097500276 17 297 36 444
2798 -0.70766085133010792 1.6338310989948948 1.4768272370328417 255 241 73 0.1650661800139451 43 625 31 894 8 852
3919 -0.70059439293713965 2.4155540180155683 2.526645187686019 130 86 60 1.4625548900079088 100 1086 58 1018 77 602 27 971 12 948 61 1071
5028 0.18284933426086519 1.6763506332360976 1.5875279211850963 182 138 37 0.040606538958975487 13 658 73 267 36 526
2671 0.61120333714271502 2.6527673426611535 1.7223490162354773 0 0 0 2.3396553293549029 60 713 88 479
4976 -0.30679009879410346 1.8329834503898255 2.1446259458598176 205 207 230 0.033472504309289206 13 460 73 73 36 369
2619 1.2309183458888406 1.7434535075524407 2.2745085629150981 255 225 65 2.4019056827012202 82 718 43 409
4124 -0.66473275740124915 1.6326762405920392 1.535490832521001 255 207 49 0.29207323482369796 100 796 38 674 29 442 30 461 58 752 77 309 27 549 72 823 68 880
5233 0.19405114678090668 2.044113343350503 1.7451900922181582 93 96 112 1.0975894991857569 67 581 52 219 63 837
2876 0.23039193983224149 1.8294010783985755 1.8169496448388833 228 207 162 0.31549534382081995 3 54 31 838 8 816
4692 0.36920080581289239 2.4251479930036286 1.8713115992606335 197 176 138 1.5191747652501897 26 683 86 614 50 326 65 454
4896 0.10048529670267847 2.3847816725395115 2.3068149255942831 234 207 160 0.61639035827302402 61 997 5 715 52 253
4301 -0.34067616188260569 2.1554456290402504 1.4742591032089534 252 212 54 0.089516721449331607 79 52 11 78 48 92
5410 -0.42737799924254849 2.1182098880851505 2.6109989182077809 36 16 8 0.59307416243728905 98 556 92 504 75 49
3920 0.52209027312573264 1.348157287582131 1.6798018076766328 255 213 45 2.5980454776636135 72 1079 68 1171 27 979 12 957
5029 -1.051536817652525 1.727117432407645 1.3817375493903674 174 120 24 0.1861415051193871 13 667 73 272 36 299
2672 0.23900677683336374 2.7301826198446197 1.7067850911397089 94 67 54 1.0801214255647831 76 293 88 494 66 734 47 645 90 599
3936 -0.15070805452302199 2.0598735670667225 2.4173497418728527 21 20 20 1.6270054491776194 38 388 77 236 27 619 58 601 12 391
5045 -0.48526309753040064 1.903359414800514 2.0048939436179922 235 178 46 0.28711823283101712 13 721 73 323 36 596 17 955
2688 -0.08743682897731149 1.8586993297953418 1.5060832740921561 205 177 60 0.048508635235692765 53 499 88 689 66 936
4903 -0.89755065057744043 2.8309464547224481 1.7100012021425059 61 61 55 0.49359290243538539 64 759 46 141 40 372
2546 -0.98274533821981125 1.9752319526411375 1.7904377780726968 238 198 57 0.12605810478821555 76 522 54 528 43 750
3927 -0.82843361147425565 1.7097265172485256 1.2842876648834163 225 0 0 0.58666185468984444 32 1169 16 916 41 1482 45 1551 56 1502 14 1307 69 1258 87 1356 94 1220 39 865 25 1085 60 914 22 646 15 1069 8 1060 53 550 82 1036 81 1205 24 790 44 1053 93 643 85 698 100 1012 38 894 29 867 30 854 58 952 10 1180 34 1125 76 518 54 525 3 1169 43 742 88 743 66 976 31 1121 47 916 90 698 24 791 59 541 53 549 82 1035 10 1179 34 1124 76 517 54 526 43 741 88 742 66 975 31 1120 8 1059 47 915 90 697 95 1405 32 1168 96 1245 16 915 41 1483 35 564 89 1145 28 342 51 373 97 647 83 1177 91 1228 45 1550 4 1556 56 1503 14 1306 69 1259 87 1355 94 1219 39 864 25 1084 60 915 22 645 15 1068 81 1206 44 1052 33 908 93 642 59 540 3 1168 21 1156 21 1157 85 697 100 1011 38 895 29 866 30 853 58 951 77 527 77 528 72 967 68 1053 27 864 12 800 48 1097 20 1151 20 1152 70 703 46 446 46 447 84 424 84 425 42 735 42 736
5036 -0.32445927040137046 1.7486690861920127 1.9987052724692818 114 73 12 0.16403161616967418 13 691 73 300 36 343
2679 -0.64000739047604149 1.6922874518244142 1.3652244755319711 255 238 72 0.20557049257964174 82 902 88 619 66 825
4904 0.00742887940561264 1.2368410596898451 1.7750050593632627 31 34 41 0.086751329956896522 3 893 46 221
2547 -1.0969491105759615 1.7497837035838262 1.3957036353161314 255 233 72 0.40390738528485348 76 523 54 531 3 1151 59 476
3928 0.0298942053550042 1.8340650861100087 1.4762112151771671 120 126 146 0.49662165589245788 81 676 100 324 77 23 24 468 17 375
5037 -0.93908958302078127 2.1240516216526353 1.2467618828893849 178 129 31 0.1116679861466499 13 695 73 302 36 569
2680 -0.64000739047604149 1.6922874518244142 1.3652244755319711 255 238 72 0.20557049257964174 82 903 88 620 66 826
3958 0.057961665907415694 1.9404793703139522 2.1642329129457303 237 170 42 0.37728814292307289 58 117 72 157 68 423 71 376 18 254
5067 -0.26809604647705632 1.8592790915573003 1.9129175433121921 175 134 32 0.11918956722973038 13 847 73 452 36 715
4987 -0.12346266658678667 2.0878087176064857 2.5244119590894423 9 7 7 0.064525506886951731 13 503 73 106 36 395
2630 0.15928728083441884 2.0873714509004184 2.786846629050507 230 214 174 0.24240879901756515 54 274 43 474 88 450
4135 0.2733883787164772 2.1441005539624984 2.1419705419040795 35 32 26 0.39113154190140731 27 172 12 184 61 469 99 375 67 202 98 457 23 249 92 501
5244 0.50173013726349414 1.3536958920435351 1.5386890036004195 237 128 17 2.5807545251814856 5 784 67 619 52 296 63 866
2887 -0.70606736114777435 2.3384929894583188 2.4546652454092439 221 204 165 0.18154379882931279 31 1031 8 985 81 1123 24 704 55 382 17 990
4703 0.052355738091421883 1.9637751341918239 1.7019142647225296 82 44 4 0.21680186385091071 11 476 79 263 7 70
3968 0.10419976529700012 1.7797043744955978 2.1010831955309288 96 87 93 0.24562855287224322 58 335 72 343 68 653 27 324 12 150 61 434 71 363 6 76 99 329 5 207
5077 -0.83075006035546273 3.3011150485342142 1.1464758187522779 97 100 91 0.12617530583292408 13 554 73 494
2720 -0.64335262676368754 2.997130460254497 1.3829599190592345 42 35 36 0.15960980630958516 88 380 66 547
4858 0.30526645050093282 1.0339532179919151 2.1507709703445972 254 195 52 1.042782455114925 18 1031 17 1208 13 1109 73 702 36 945
4263 -0.24248386163350774 2.196886297411992 2.5130671307420731 135 127 138 0.39565721021266298 71 644 9 103 6 311 99 582
5372 0.50794818406413089 2.0447440545452267 2.903715008861484 250 227 176 1.1164960795868604 98 756 75 259 92 585
3015 0.75797362612632813 1.3168508096992109 1.8759586658228533 255 218 53 0.061287501360579484 31 804 81 908 24 454
4831 0.59652642302262171 0.97900552949138742 2.3157834978438827 0 0 0 0.24956813082399054 55 284 17 902
3950 0.7184454782957217 1.2471127103233233 1.9871842515116398 54 27 0 0.29501291041987188 58 965 77 502 27 891 12 826
5059 -1.059978449850526 2.6132205848434547 2.0416158062858019 69 71 65 0.32376137140203853 13 780 73 393 36 656
2702 0.30557072364491716 1.2006429355993156 1.5209623819906646 19 25 34 0.93600246923993347 10 882 34 828 76 234 54 230 3 879 43 437 88 442 53 217 82 733 31 810 8 791 59 11 21 677 46 9 13 375 73 3 36 2
3967 -0.14149632257211081 1.7268164087983 2.0245073177462092 249 178 41 0.43097084183443701 58 77 72 325 68 389 27 108 12 134 61 183 99 523
5076 -0.16096179425978144 2.0795381898270007 2.7676806469240884 229 213 175 1.0646618801830805 13 881 73 486 36 639
2719 -0.77002797731109718 1.7056355683662847 1.6371112076651699 92 86 96 0.5146825652226793 88 520 66 535 47 224 90 11
4878 -0.92414452255183388 1.8428216065980401 1.1788100713798226 250 202 49 0.43292951750241282 20 1245 23 1172
4026 -0.58642260788514022 1.7751894794038514 1.3865587770944168 87 56 32 0.54822140538778386 72 543 68 578 27 545 12 725
5135 0.24052881194322645 1.3438092194510221 2.1725206568790352 0 0 0 0.8281717220087913 13 1110 73 703 36 946
2778 0.083682853693735348 1.9798808890134709 2.9000762125339836 49 35 35 0.24536553240701212 43 94 31 490 8 512 81 609 24 170 44 294 100 534 38 169 77 286
4594 -0.0068205765952381453 2.1421986462500255 2.2317807033375501 231 171 42 0.33131390813818457 6 266 99 670
5008 -1.0376135153973953 2.7160298006268313 1.9072181812708713 115 111 94 0.026855438341725418 13 590 73 185 36 468
4206 -1.5295243423011633 2.636169102394037 2.0321184554491332 0 0 0 0.40097072930943994 68 1080 61 937 5 617
5315 -1.1368269748764646 1.9777987401953823 1.5924156187036411 162 169 193 0.038399177577801764 74 517 40 492
2958 -0.73245378461494925 1.7633543534224914 1.2522221400430837 255 232 72 0.41033875941861891 87 934 39 469 22 202 15 640 47 592 45 1231 56 1381 69 1130 25 968 60 781 88 637 66 812 90 367
4774 -0.28523424668788588 1.615239689186367 1.995456608140403 190 189 210 0.27981920892414752 18 526 55 61 17 675
3949 0.71600297634690779 1.2491306162927822 1.98619624942867 0 0 0 0.73989904055963351 58 966 77 501 27 892 72 930
5058 -1.1406758191201398 2.7634951954607776 1.7874321214101367 142 131 108 0.1481560911149539 13 776 73 392 36 467
2701 -0.99831949589257096 1.7671346711804583 1.2846008431011864 255 235 73 0.53667735734726463 69 1138 82 930 10 1041 34 1015 76 424 3 1067 43 655 88 646 25 953 60 763 53 422 66 796 59 417
3966 0.29854708623401638 1.0361696891410945 2.1859268287090048 255 255 67 0.47451020356800067 58 321 72 309 27 304 12 336 61 380 5 127 99 5
5075 -1.1737820452572785 2.284445660163549 1.7362347471377007 88 73 14 0.44637994653312968 13 747 73 483 36 739
2718 0.73323755528307388 1.4455765412734523 1.6563908147633604 255 232 65 0.044781621567045321 88 109 66 505 8 314
4945 -1.1260199788037506 2.4191937281433402 2.1085321957512462 160 153 167 1.4274383081072004 17 1149 13 1074 36 910
2588 0.47738612926842444 1.9559004300505576 2.9397035688207191 118 110 92 0.1167567806542735 3 399 43 77 31 455 8 496 81 590 24 142 44 525 100 536 38 178
4093 -0.12595596300011519 1.9798776804015832 2.3758319389796458 31 36 43 0.34914289775155127 58 379 27 339
