# 3D point list with one line of data per point:
#   POINT3D_ID, X, Y, Z, R, G, B, ERROR, TRACK[] as (IMAGE_ID, POINT2D_IDX)
# Number of points: 368, mean track length: 5.1316200898964235
4755 -0.15488256904580164 0.65767341776679455 2.6233875091642198 174 174 185 0.45859984823087335 99 728 64 601 26 1467 20 639 75 936
4754 0.17509958143331733 0.75616247565301908 2.5135256183886185 158 162 178 0.63884998952829397 99 724 64 600 60 1488 79 203 20 182 65 863 53 188 93 187 18 178
4752 -0.69304339255199121 0.92018593203956334 2.2305327473922034 101 90 60 0.19882740511637298 99 236 64 587
4751 0.090406218480204692 0.72941804975337865 2.3933224425960442 115 144 93 0.136094576283357 99 701 64 584 6 1128
4750 -0.7658744530442323 0.89920636984384461 2.1922391754528583 97 74 52 0.38664082074867701 34 722 64 579
4749 0.22925288426917306 0.76035297479375308 2.2125702647896399 142 148 103 0.11248095225012808 99 686 64 564
4748 0.23316724333707323 0.75499068849308237 2.1879575111584351 59 114 61 0.18478394121325203 86 127 64 562 60 1420 6 1114
4747 0.29252747648153599 0.76359300758467175 2.1406424984146133 59 115 62 0.20423525364340192 59 142 99 675 64 559 93 113 53 101 80 442 75 910
4746 -0.019757847944656487 0.62182341507851957 2.2091231070862629 62 120 66 0.18966147744675133 99 665 64 552 6 1107
4745 0.034949470814873901 0.63320982549663085 2.1485981617030361 58 116 63 0.11177112362278346 99 656 64 545
4744 0.14806562413445179 0.66256834346380244 2.0832829571534552 58 115 62 0.067098599556929012 99 652 64 541 6 1099
4743 0.29744049412368551 0.71473550341945147 2.0290808428643223 61 120 67 0.15788106407352717 86 92 64 540
4742 0.14238614623572843 0.61649753624618442 1.9861844387330245 56 114 62 0.10977056081469572 99 633 64 531 6 1091 80 419 93 512
4741 0.0037907759247969852 0.55603091985056619 2.0221915169075522 148 165 108 0.53372544862499749 99 1022 64 528 60 1790 26 1713 18 525 93 86 75 562
4738 0.19182790196403143 0.61609852332828019 1.9320527278011064 134 150 101 0.40756073576596563 99 1018 64 521 60 1777 93 61 18 61
4736 0.28675272445667199 0.62027479593339574 1.8696194111289728 186 183 122 0.19223362357325569 59 640 64 515
4735 0.075053256857642303 0.47152005203534331 1.8137476345719818 62 125 68 0.16388052682079263 34 1028 64 501 6 1065
4732 0.29507618009584546 0.40736763509832752 1.5809060975431291 107 83 62 0.23919925902725253 86 4 64 476 6 1044 80 383 75 520
4731 -0.001582203152608791 0.25241591872036434 1.6328954235724829 126 106 90 0.7220180055596469 86 448 64 472 6 1039 80 380 75 512
4730 -0.21862951987371587 1.9796434799248737 2.687119118763142 247 253 255 0.33978261001974225 99 541 64 444 60 1222 6 1021
4729 -0.21443479382081113 1.9509622235585764 2.5891580531755514 83 168 98 0.28186319219128286 99 524 64 426 6 1293 80 326
4728 -0.47551152533155949 1.9042084708429448 2.6640847041948885 202 200 210 0.17016498846222128 37 758 64 425 27 740
4727 0.00032968604173297389 1.9663756294977084 2.5332910908830861 71 143 80 0.21301385448958607 99 518 64 422 6 1003 80 594 27 944 75 1060 69 798
4726 0.00030221768196969645 1.9661539381861846 2.5334728470078471 71 143 80 0.1112557958256402 99 519 64 421 80 595 75 1061 69 799
4725 0.17001666575349889 1.9510157144086313 2.5046263451642505 74 134 70 0.16437999791955385 99 504 64 413 6 1004 80 337 75 816
4724 -0.36781899390832784 1.8904409939486286 2.5424167019575039 139 162 111 0.22853792068442125 99 507 64 405 60 1190 6 966 26 1586 20 758 27 701 80 289 75 780
4722 -0.40656067834127185 1.8665887774420118 2.5012267592545232 230 226 132 0.15742208351275969 99 498 64 394 6 952
4721 -0.14865175932501043 1.8410723757119043 2.4738767172551901 69 135 74 0.25350906695305597 99 482 64 390
4716 -0.31400692095941707 1.7311784986903915 2.4689976450353064 85 147 79 0.087642471659545002 34 521 64 358
4714 -0.63154370481025413 1.5845826817711979 2.5143580177399447 232 222 128 0.047858740707159522 99 435 64 323
4712 -0.36197947172342848 1.5820393465318556 2.4632822884110306 138 178 93 0.63149659970780658 59 923 64 312
4711 0.053268427323964168 1.5466004172135519 2.48225332253284 100 164 83 0.14745835864015677 99 399 64 308
4708 0.30974543717008451 1.5745502574547567 2.3738282000843403 187 175 169 0.28008660766416277 37 1161 64 291 27 217
4707 0.16165442610495756 0.59869356014037456 1.9376501557993833 0 0 0 0.031512120475913181 43 859 50 842
4706 -0.32473515965926825 1.2958512200233632 2.513145107876507 108 171 82 0.095805114021093637 34 836 64 261
4705 -0.44245758593787732 1.2793453959549896 2.5256285351966157 229 223 124 0.021051536464919897 99 802 64 258
4704 -0.65696556360319214 1.1332042410190832 2.6007313864999841 223 223 124 0.16715537400567126 99 784 64 245
4703 0.35615408220404876 0.85045533404707019 2.3544656570258136 61 119 67 0.061196314958112091 99 216 64 194
4702 -0.62247451133572729 0.82529195186692805 2.2351012578462686 121 102 74 0.35300314664960786 37 357 64 175 6 743 80 97
4701 0.38773575959279072 0.81462238303673984 2.2192623110030021 57 102 50 0.077883255947061705 99 182 64 171
4700 -0.068596199512004241 0.17840497011031434 2.7819213474469779 140 153 102 0.72897937960093939 34 84 64 159
4699 -0.28519366407682284 0.50107787112247848 2.4552974806313665 57 107 56 0.35451602098749241 99 162 64 153 26 1752 86 148 20 946 27 863
4698 -0.53870884506420236 0.69995218014448002 2.2313493906101307 97 187 103 0.35442014952445045 99 176 64 148 6 728 80 88 46 52 11 52 57 17 88 29
4697 -0.023658813929703232 0.63920466797054998 2.271194586475128 64 121 68 0.23586872597031419 99 153 64 147 27 563
4696 -0.54099197418128253 0.68768204122688137 2.2222666087717253 195 210 137 0.32413321675101764 99 172 64 141 6 1106
4695 -0.16206800521976888 1.0864362986695135 1.8138193602094206 151 156 107 1.6753602321576488 50 909 64 132
4693 0.10098347010081893 0.64225731981247935 2.0905628804594549 57 114 62 0.16329847894101301 99 121 64 116
4690 -0.054963792619257462 0.53660510678566298 2.0506919818991007 62 118 65 0.15489562591014858 37 904 64 89 65 788 60 1396
4689 0.33851501273283902 0.67227065660854601 1.922390098677625 62 121 67 0.1628912731238055 37 889 64 87 6 694
4687 0.27400820931544434 0.6391356106801348 1.9012213013818582 64 125 69 0.089050365421619537 99 82 64 79
4686 0.38291391113215689 0.64514342862918062 1.8653372255691802 67 113 63 0.10556880091519977 34 667 64 76
4685 0.42881801545679621 0.6207980620082747 1.8193829982713929 199 195 144 0.19876677470264098 59 65 64 69 83 91 75 54 46 29
4683 0.18875176595740273 0.50906405863869131 1.7851042861161126 63 124 68 0.30527824869434245 61 876 64 49 80 27
4680 0.32776567366761711 0.45596304835432916 1.7064577430613685 42 91 52 0.24698814097037902 86 14 64 27 76 599 6 654
4679 -0.87909793610715714 1.6085292643543927 2.9216331202642234 0 0 0 2.9720755569936683 37 2629 86 1224
4678 0.32879003831607201 1.6797878470315413 2.4240040266576313 213 203 182 1.7372672210849842 61 2265 86 943 76 1071 82 346 60 2070 79 1217 26 1990 20 1166 65 1606 27 1070
4677 -0.39952759736938775 0.90185977401931428 1.4403755414233244 155 154 109 3.6171949854912571 10 1090 86 63
4676 -0.38944954765979684 1.9162514907525579 2.649629928859909 104 165 109 0.45142111189810125 35 563 34 988 86 422 59 1030 37 1845 99 1222 60 1711 79 856 80 587 75 1055 46 543 69 579 11 410
4675 -0.10361365314228622 0.29164811931122547 1.804979204290418 79 107 64 0.93362225402001697 34 1588 37 2493 95 2239 62 2005 16 2109 3 898 54 1906 63 1516 74 1533 56 1595 77 1759 50 2264 43 2430 10 1803 62 2038 31 1155 61 2588 86 1087 76 1635 82 652 60 2374 33 1886 97 501 79 1524 26 2229 20 1374 27 1297 65 2157 53 1402 93 1339 18 1348 40 1102
4674 0.019133402612389189 0.28752324391023948 1.6494265962655779 66 69 30 2.1655111880224052 37 2161 86 455 95 1278 54 845 74 954 35 1024 34 1252 26 1296 27 797
4673 -1.0266190009245024 1.5875491721664079 3.4043442297723252 215 208 194 1.1664265995357177 50 2376 43 2555 61 2743 86 1226 77 1899 59 1799 37 2640 99 1719 64 1563 76 1765 82 791 60 2516 33 1957 6 2008 79 1647 26 2381 20 1522 20 1534 27 1438 65 2263 53 1494 93 1434 18 1438 80 1203 75 1676 52 1419 19 1317 40 1216 9 1458 94 1401 69 1316 22 1472 71 1545 71 1556 96 700 13 1101 100 1121 55 732 4 686 38 591 91 766 81 509 17 577 29 538 73 472 25 516 36 1213 14 422
4671 0.31334679700621726 0.77515669769971274 2.148700487509581 65 130 70 0.24967961069600036 37 1946 99 1044 86 508 34 700 59 1121 64 896 6 1374 80 665 27 834 75 1130
4670 -0.26590230301817758 1.2089802578473674 2.5330988446583818 153 142 85 0.30379391636873448 95 1457 62 1355 74 750 63 1067 35 830 12 562 59 826 56 841 43 1607 10 1108 86 241 61 1717 99 782 33 1203 83 551 65 390 44 864 40 482 49 787 50 1507 51 347 36 732
4669 -0.76887769047416399 0.89562277334761153 2.1956608363663879 65 47 29 0.58716454698771625 95 325 16 248 59 766 37 1595 99 725 34 721 86 206 62 125 77 880 10 1177 64 580
4668 -0.79273254230601198 1.4473333699278994 2.564950994431205 118 162 84 0.69704491401862045 61 2727 86 1191 76 1744 82 778 43 2541 52 1394
4666 -0.30216029723698501 1.4133155940384514 2.4559041761015128 167 177 101 1.3242472690774674 99 1624 86 1175 64 1417
4665 0.41043416283794698 0.91704455341123636 2.6857591755652899 0 0 0 1.7777966152942151 61 2605 86 1161 82 617 60 2490
4663 -0.19233356574038113 0.60053032125482753 2.5997999254002182 177 176 186 1.5101442674722825 99 1669 86 1158 64 1511 60 2488 6 1977 79 1621 26 2359 20 1494 27 1420
4662 0.062428627726110797 0.64008257751617115 2.1552609265673883 63 111 61 1.0778353684100321 37 2564 99 1661 86 1146 64 1451 60 2440 79 1536 26 2287 20 1424 27 1342 53 1416 93 1354 18 1301
4661 0.083070639496613585 0.55246374036783863 1.9362040509229093 127 144 94 0.68343783753224963 99 1649 86 1134 60 2429 79 1573 26 2312 20 1453 27 1374 53 1448 93 1389 18 1400
4659 0.32458553970402182 1.7170845728418644 2.4771122644771122 242 238 222 1.6879169495818975 77 1744 86 1112 82 629 60 2353 79 1433 20 1395 93 1156 18 1157
4658 0.36349323114353171 0.79152317549705808 2.1996333202738425 129 147 96 0.71846851949461954 99 1604 86 1095 64 1455
4657 -0.16427803389160384 0.31893806286745691 1.8722750642401322 94 126 76 1.2496843715633303 61 2591 86 1089 76 1639 60 2377 79 1527 26 2235 20 1377 27 1230 65 2159 53 1403 93 1340 18 1351
4654 0.089877712300055645 1.3307598556917841 3.4304127193719238 71 129 70 1.5535474035935644 61 2574 86 1079
4653 -0.077573084474080206 0.64319517067395748 2.4624742167179683 58 134 76 1.8751613299750323 99 1489 86 1060 64 1403 60 2388 6 1877 26 2331 79 1586 20 1477 27 1393 80 1079 75 1618
4652 0.22953147610204233 0.67100348653835651 2.0079746830249094 51 108 58 1.2464244362783721 99 1541 86 1056 64 1394 60 2330 6 1870 79 1480 26 2240 20 1382 27 1303 53 1277 93 1219 18 1222 65 2022 80 1067 75 1549 46 964 69 1093
4650 -0.78187946253168206 1.3142480392336191 2.5657919339603645 94 147 69 0.47693226952188345 34 1527 86 1025 74 1477
4649 0.054195171810557996 1.3204757689522209 2.5320438619874097 70 121 57 0.54062962476808973 59 1598 99 1505 86 1015 52 826
4648 0.41866580183287694 0.8442131387184858 2.2924343112286754 111 126 84 1.0944582340941091 37 2414 99 1433 86 1000 60 2183 79 1321 20 1253 26 2091 53 882
4646 -0.88127935545253278 1.5393988985469889 2.769989245709644 194 192 199 0.5969635765237874 61 2381 86 979 76 1401 60 2268 65 2007
4645 -0.8819377102811361 1.5394716083787163 2.7679613076801268 194 192 199 0.615261148004562 61 2382 86 978 76 1402 60 2267 79 1469 65 2006
4644 0.035110876665736063 1.9957465259068132 2.6591718140525007 226 229 240 0.5999167861526471 99 1476 86 977 64 1329 60 2248 6 1781 79 1363 26 2212 20 1357 27 1278 53 1126 93 1074 18 1080 80 1002 75 1537 46 865
4641 0.27536563387825369 1.7387470861344565 2.5119907949702598 85 81 46 0.82256105311173422 37 2380 61 2274 86 952 82 358 60 2219
4639 -0.82482742799934339 1.0350904756260706 2.6079115036702962 132 103 74 0.7161364979735203 62 1941 86 941 54 1788
4638 0.18461454639638536 0.61842526146012589 1.9448138526562726 165 170 123 0.92018244235832125 99 1421 86 909 64 1254 6 1714 79 1309 26 2071 20 1239 27 1147 18 1003 65 1748 75 1307
4635 -0.4911626296865409 1.8669578453221145 2.6316082956006204 114 161 103 0.56563066901025216 77 1349 99 1215 86 886 82 435 60 2265
4634 -0.30168205418654709 1.8974631817469445 2.5317823452255479 68 139 78 0.5963808366699983 99 1383 86 874 64 1323 60 1937 26 2121
4632 -0.90234954410082757 1.5004061528737358 2.6341223165259744 66 132 74 0.58354659679606935 61 2165 86 861 76 1223 60 2258 65 1999
4631 -0.46933060319267 1.514187085039931 2.8992021386078486 83 140 72 2.4445555902225928 10 1504 86 855
4628 -0.30187169656842722 1.7369126740028304 2.4705579658461443 77 132 70 0.29487941229637987 74 1338 86 847 60 2101
4627 -0.69214630201003247 1.5194191160708372 2.5342177754083948 76 130 68 0.29332469520853249 61 2349 86 843 76 1371
4626 -0.1501589349218444 1.6024530206354117 2.4613441390305804 241 223 136 0.14446640058912727 59 1446 86 822
4625 0.20212291883217504 0.83466900323588122 2.5593507114208025 112 93 63 0.93974910451361138 99 1080 86 779 64 1123 60 2047 79 1201 26 1975 20 1160 27 876 65 1785 53 1083 93 1029 18 1040
4624 -0.056048412002045439 0.69593211525862453 2.586406426784412 68 67 26 1.1433076041580563 99 1304 86 777 64 1117 60 2197 79 1204 26 2098 20 1261 27 1060 53 1205 80 942 46 778
4623 0.0092482601019655275 0.70742369438717878 2.5436025143829153 178 182 196 0.51862794237499732 99 1303 86 775 76 1065 82 101 60 2045 6 1733 79 1199 27 1172 65 1603 53 1081 93 1027 80 941 75 1338 46 777 39 59
4620 -0.05859941861228668 0.60412756335412765 2.2180398830248356 156 161 116 0.12279549151482137 99 1291 86 764 60 2026 26 1959 64 1098 20 1143 27 1042
4619 -0.11938708173128899 0.51287451177367815 2.0799544158019567 153 158 111 0.14943093012579731 37 2200 99 1277 86 751
4618 0.27696130519706308 0.67216698675082798 1.975733464696974 164 171 124 0.023137697669633452 99 1280 86 746
4616 0.13498218855706406 0.48579009570072618 1.7973374715290247 61 109 60 0.20007085067820748 99 1259 86 732 79 929
4615 0.30692539609335556 0.52665349489393254 1.7545525115134077 209 202 147 0.088653766831018277 61 2191 86 728 76 1246
4614 0.11198590754838039 0.29768807286870774 1.5658691089200378 89 63 41 1.7194328388402047 61 2187 99 1241 86 712 76 1408 65 1728 93 771
4613 0.24390187075234293 0.33413167127511773 1.5498731916077786 151 106 69 0.68845899852281833 99 1240 86 711 64 832 6 1331
4612 -0.22806841191315824 1.9238120602449658 2.5338617694112906 179 189 142 0.50256262866602153 99 950 86 669 64 1027 60 1933 6 1507 79 1066 26 1867 20 1040 27 1092 53 960 93 665 18 665 80 760 75 1242
4611 -0.80600254508734015 1.5901086139049985 2.6019142991879414 62 128 70 0.37357827539082289 61 2161 86 664 76 1392 60 2257 79 1372 26 2202 65 1993 53 1320 93 1270 52 914
4610 0.031883535117477435 1.9597658480723792 2.4989962036241935 147 164 107 0.46270743378527007 99 1209 86 650 64 1207
4608 -0.3248883987263656 1.7656493246200136 2.4804612306125597 224 216 139 0.25272158758368612 59 1300 86 642
4603 -0.59424816005830283 1.0178322494229932 2.6299661554826481 245 227 128 0.11701647981141935 37 2029 86 574 82 377 60 1873
4602 0.47055785828006502 0.94268924997123749 2.4955903538155768 181 188 204 0.38026261812008771 61 1570 77 726 86 536 76 188
4601 0.38933081723200214 0.83079970048841756 2.2447493008483903 64 113 55 0.34121804699961239 99 1054 86 517 64 910 60 1432 26 1410 20 589 27 846
4600 0.33263245255471063 0.8005666465012744 2.1969518801106207 60 116 61 0.30065088750372604 99 1295 86 515 64 900 60 1804 6 1595 26 1729 20 916 80 828 75 1327 46 632
4599 0.46953237813045978 0.18003043388813425 2.9118191920405172 55 109 58 1.2950128656069806 61 1961 86 513
4598 0.16771306746786302 0.65937772791024751 2.0544017197501097 163 169 123 0.026615186334479783 61 1942 86 498
4596 0.073090899388327468 0.58317908133064333 2.0010409961594164 94 129 77 0.1885892530542406 37 1917 86 492 60 1784 26 1709 79 949 20 897 27 522
4594 0.20901410886736838 0.54283622752305993 1.8218758650791766 180 177 127 0.042492868787649421 59 1079 86 472
4593 0.0059733899346434138 0.87243747262094951 2.6860220417146468 0 0 0 0.03217786937315513 10 1436 31 789
4591 0.28474703985036248 0.39415906791669747 1.5644836757131997 255 255 249 0.31244758869407513 61 1901 86 446 76 594
4590 -0.32947145128633137 1.9890018251572867 2.7472534876630168 103 80 56 0.56348594378656491 99 978 86 438 64 817 60 1730 6 1316 80 359 75 472
4589 -0.6296730881462409 1.7833436656176875 2.6790769451553862 109 138 88 0.81042482792122239 37 2138 86 421 64 777 26 1892 20 1071 27 962 65 1110 93 725
4588 -0.23708813187240599 1.9401433771414232 2.5890234397189387 176 191 145 0.23980583796343513 37 1366 86 408 64 1035 60 1686 6 1518 80 767 75 1253
4587 -0.72434712016287717 1.7011695337780623 2.6313916239506416 130 135 93 0.15727773967682979 61 1423 86 406
4586 -0.96474600323623083 1.4956101741087577 2.7650873752516945 213 211 221 0.63104287155911232 37 681 86 394 60 1965
4584 -0.34523750976044631 1.810053448813757 2.4869082233720383 214 210 135 0.37225924681432937 34 536 86 376 83 324 20 293
4583 -0.37286621041793722 1.7834518309719682 2.4818791706185608 233 223 142 0.072687800003524816 63 440 86 374 64 374 44 34
4582 -0.37260049475700685 1.7837346688088043 2.4821366952337574 233 223 142 0.18632706824220618 34 955 86 373
4581 -0.63062267567799291 1.579119570038769 2.5188500415623185 242 225 137 0.38167306699994386 54 687 56 962 86 361 33 1267 34 906
4574 0.19032427033834409 0.83476495625369307 2.7394004294920378 241 228 127 0.62696469651071829 99 1089 86 204 64 219
4572 -0.034830369823948687 0.70861083763296195 2.6095819349223972 175 176 187 0.52974349813277044 99 734 86 187 64 921 60 1842 6 1399 79 1209 26 1771 20 959 27 878 53 1088 80 469 75 941 46 108
4571 0.0028372463134782033 0.71687817680711163 2.5718216947310326 102 83 62 0.28771665999786683 61 1620 86 180 20 636
4570 -0.0057134517988069455 0.65813851219705399 2.5289458306184813 62 103 57 0.35131812050617195 61 1047 86 166 76 253
4569 0.27012497513983025 0.7953776246936346 2.240798402069303 52 103 54 0.018873875267802726 37 1527 86 134
4567 -0.26203550931188258 0.49988439892825803 2.3201405270350763 54 113 61 0.45457505318415392 99 135 86 132 82 91 60 1816 26 1737 20 922
4566 -0.30896963223399554 1.0926109200622107 1.6320153330959291 164 167 110 1.133654761356703 62 1631 86 128
4565 0.43704341606341657 0.79464478917019765 2.1681267276153204 178 186 131 0.28286819180756662 99 1048 86 117 64 899
4564 0.43474204304369513 0.79815096075662895 2.1612271546558954 178 186 131 0.49035714623074722 99 1049 86 116 60 1408
4562 0.13880967933138444 0.65290220762601014 2.0738348673763314 160 171 121 0.15834098674160621 99 649 86 98 6 1098 26 1372
4561 -0.06095246926485684 0.54435784645255303 2.0737172670115078 165 167 118 0.11121010391489052 99 636 86 95 26 1371
4559 0.04979663028522216 0.58704261603894758 2.0272393526349406 55 109 59 0.19074352996069507 99 634 86 88
4558 0.19612913264787962 0.65201287329231916 2.0020745251356993 167 173 129 0.1884078240444175 99 640 86 85 64 535 60 1382 26 1358 79 578 20 538
4556 0.1587126355243666 0.59770272160022142 1.9376358308432473 54 109 60 0.11482798256864966 37 1469 86 70 20 71
4555 -0.3955130770450152 1.2127530855152002 1.1646007752367096 53 105 56 2.1960824972993001 62 1441 86 69
4551 -0.089707360903975811 0.44872587311865214 1.9431658545115149 168 166 117 0.10403456432938317 37 1451 86 58
4547 0.38371961452367553 0.64659033377362685 1.8726471577588966 49 85 42 0.048077520917951873 37 1456 86 51
4546 0.2733042665983052 0.60505344635808944 1.8590039412646588 179 182 130 0.11987520321894211 99 614 86 49 6 1076 64 511 80 406 75 879
4545 0.24580350073215196 0.50381230100300656 1.7582214343357661 200 196 140 0.15751637608483565 37 1427 86 32
4543 0.66608178382870209 0.34754142145199646 1.8576679248243579 255 255 255 2.2920015998018806 61 1456 86 13
4542 0.45784013589715022 0.52602623301358276 1.6579478348080487 169 173 186 0.31369495657976237 61 1462 86 12 64 483 99 584 76 597 6 1049 65 712 80 388 75 867
4540 -0.69495458182803349 1.3056820268456502 2.5551283940820642 73 112 53 0.075164020089265704 43 1291 61 1338
4539 -0.29595005690304704 1.1283209035244779 2.5636039569235747 74 133 60 0.033265782782223308 43 1161 61 1185
4538 -0.92695620247187049 1.1982329264898313 2.9479258946015081 193 167 131 0.50020460617576434 43 776 61 788 76 965
4537 0.3508289475706593 1.4827407114205982 4.3175451541220573 74 118 59 3.0775916904675791 37 686 61 711
4536 0.40446935754904256 1.3930817311509247 4.3033037238851879 64 110 56 2.6012812090558919 37 654 61 687
4533 -1.0324169757075978 1.4897286047506582 3.3412541435911538 0 0 0 1.6907595586292385 61 2732 82 696 60 2483 26 2353 20 1503 27 1427
4532 -0.69230206859775834 1.706800788166926 2.6073613591672085 69 136 73 0.8319836561940086 43 2419 61 2728 76 1745
4531 -0.79715612995535778 1.1104572279801292 2.5780204015394581 254 245 248 1.3026230469962585 43 2539 61 2715 76 1737 52 1366 19 1232
4528 -0.11986721169337014 0.41304382470755324 1.9266335073144052 109 129 85 0.4081370541097244 43 2489 61 2667 76 1704 65 2213 93 1342 18 1353
4527 0.21053692185715273 0.47048513221034455 1.7441376726088629 67 100 53 0.21855676426066309 43 2480 61 2657 76 1633 79 1520 65 2153
4526 0.55091751493770025 1.0006935622527047 2.4301963546701901 0 0 0 0.61312339501796298 43 2434 61 2598 60 2387
4525 0.17860454459773012 0.53415738318253148 1.828183898519278 143 162 109 0.365604715351798 59 1664 61 2586 86 1091 76 1580
4524 0.2645802300703109 0.45084340225058139 1.6783362351415798 48 94 52 1.2686112833038434 43 2364 61 2585 76 1577 79 1476 26 2158 20 1319 27 1225 65 2095 93 1211 18 1211 52 1256
4522 -0.25740391523104655 1.1045768464528463 2.570079084132229 161 161 90 0.4004355807616764 10 1690 61 2522 76 1550
4521 0.2642684417052048 1.5102322474285323 2.3611107569924425 163 138 107 0.37719047684570572 43 2233 33 1576
4520 -0.15947170436675318 1.7663706667603192 2.4666393389246393 224 216 145 0.35607381600604454 43 2258 61 2459 80 977 75 1458
4519 0.056533993378209468 1.8978326755494854 2.4916227775339785 91 171 79 0.22311507157626939 43 2256 61 2448 76 1456
4518 0.050478842704738541 1.0872019691554426 2.591184149041617 60 131 67 0.65917632414680771 77 1584 61 2426 82 492
4517 0.44083722151276405 1.108921401887192 2.7253207771710581 185 188 119 1.6603427086616473 43 2230 61 2417 76 1441 60 2202
4516 -0.23451459269900221 0.30300041602853245 1.9604266672119159 132 132 90 0.49999114390023702 43 2225 61 2405 86 738 76 1421 82 466 79 1306 26 1942 20 1124 65 1919 53 1176 93 1122 18 1131 52 1109 19 1036 40 955 22 1187 96 489
4514 -0.51874792974136885 1.8693663571829284 2.6642974414153868 113 101 90 0.65999002672073603 37 2322 61 2364 86 887 79 1279 18 938
4513 -0.58454624873327665 1.7600788100837603 2.5331515531045383 218 225 123 0.85246392032773766 99 1369 61 2358 86 972 64 1181 76 1493 82 545 79 1265 26 2024 20 1038 65 1857 53 966 93 904 52 892
4508 -0.50786114940622318 1.3430699191368649 2.5102611934536698 208 197 120 0.0070570197511742126 37 2269 61 2318
4506 0.92632830165152991 1.2806687942179475 4.0087374080297575 255 241 154 1.2523308353028313 43 2103 61 2285
4505 0.075704169459151927 1.7174210269283197 2.4776499181414002 255 254 169 1.074080755056442 43 1898 61 2283 76 1313 33 1419 52 568 19 163
4504 0.33638219025875327 1.2472455497551675 2.0942147478068156 81 114 47 0.32297418941611827 43 2222 61 2242
4502 -0.15020733989234214 0.37064751354967951 1.904022254288255 53 100 50 0.16883674200881635 43 2074 61 2219 76 1264 82 309
4501 0.27597348789464021 0.67939594902974954 1.9705897034875515 174 188 137 0.26339119996838434 43 1804 61 2214 76 1257
4500 0.088594031829688391 0.42845129742285654 1.7591925513034599 60 105 52 0.49135006324053648 99 1253 61 2199 86 724
4499 -1.0737905990377206 1.5391984414432056 3.3878842456873963 255 241 187 0.60210769329585778 50 1889 56 1218 61 2185 76 1236 33 1776 65 1898 53 1035 93 1109 18 1119
4497 -0.7973662684900692 1.6804208560926026 2.8347893344626001 0 1 1 1.0214817510255461 59 525 61 2173 86 691 76 1233 82 269 52 740
4496 -0.90350704848356245 1.1650295501257812 2.6810904307614054 198 177 157 0.10600145533856994 43 2198 61 2151 65 1696 18 924
4494 -0.82228684623068737 1.1563985208885124 2.6205983492872487 51 50 17 1.9257481588684255 37 2264 61 2136 86 815 76 923 60 1904 26 2000
4492 0.38964171963614802 1.0440398808754967 4.3423438258038463 69 117 55 2.2638121432396625 37 2075 61 2118
4491 -0.1766688159830771 1.8978846483206107 2.4967152796257488 86 148 65 0.28886523843557144 37 2317 61 2108 86 864 76 1154 82 406 60 1924
4490 -0.23271313648171238 1.7413813822177009 2.4676396700750054 87 142 70 0.02168650491333253 12 920 61 2095
4488 0.1017971994771289 1.5278142079680463 3.0894173042941326 170 180 115 2.4541602239288021 35 1228 61 2086
4487 -0.088779670910484512 1.7641633791196498 2.4561010544341175 113 160 85 0.040585737472668394 43 1921 61 2078
4486 -0.76585131144235086 0.89791334822289748 2.1947689195845168 71 53 35 0.22871775918920387 43 2157 61 2066 76 1128
4485 0.021146360798148245 1.1149778318790045 2.5880900044053092 182 171 109 0.11903769629599037 77 1432 61 2018 82 138
4483 -0.57484722087088425 0.58173070755917022 2.2259264402538501 160 182 92 0.14554695519320199 43 1927 61 2007 33 1657
4482 0.37425068842468867 1.331109914655271 2.5944174263607751 182 184 114 0.79779102899235566 43 1862 61 2004 76 745
4481 -0.41048126928208839 0.48766376902432329 2.2731126307109162 226 211 205 0.63865427608648417 43 2112 61 1995 76 743
4480 0.47716871881970135 1.0239694423598305 2.7159564512931764 202 203 215 0.425317716926011 43 1464 61 1992 76 727 82 103
4478 -0.26185633570532463 0.44247886124752089 2.2366068186698862 56 114 57 0.50245644334300077 37 920 61 1978 86 106 76 1048 43 1515
4477 0.36947630764686479 1.4574925606449209 2.0848154044632912 244 237 216 1.4693252277849393 43 1831 56 1243 61 1977 82 332
4476 0.32428805061903376 1.3091923800175411 2.1207645728506397 101 79 46 0.21301544929958011 43 1834 61 1970 76 1277 60 2036
4474 -0.22757796938279495 0.36299341721010886 2.0138980247915783 57 111 56 0.42058653053371287 43 1849 61 1949 76 1030 82 55 86 65 26 1346 27 516 65 1545 18 800 52 792 33 1441 19 706 40 680 22 1021 71 1053 96 240 13 611 100 756
4473 -0.22760468911724716 0.36305991083686007 2.013774085118758 57 111 56 0.28100575508392017 43 1850 61 1948 76 1029 82 56 60 1782 79 947 26 1347 20 893 65 1544 53 845 93 792 18 799 52 793 19 707 71 1054 96 239 13 610
4472 -0.17369292006920828 0.40079069483329377 1.975598828891109 131 143 96 0.27292798252652517 43 1842 61 1944 76 1020 82 51 79 945 60 1779 53 842
4470 -0.69726149363425416 1.7886525916748277 2.799420338170449 100 80 60 1.3589902434772452 61 1886 60 2151 26 2146 20 1368
4469 -0.97274597055034739 1.315997786885521 2.64463756551734 198 197 111 0.3687940724026178 43 1772 61 1880 76 958 33 1372 65 1116 52 737 40 608
4468 -0.9737721418448253 1.3152442005531571 2.6448955868814119 198 197 111 0.5372493202515658 43 1773 61 1879 33 1371 79 405 53 359 65 1117 93 355 52 738 40 609 9 939 94 884 13 236
4467 -0.59564866778222547 1.7071257987976605 2.5231873858631255 216 208 132 0.30124566279762138 43 1712 61 1853 60 1680 79 828 20 740 65 1435 53 715 93 676
4462 -0.74248946566813712 1.3665892611541608 2.5523248864607742 65 107 53 0.22739947092473795 50 1637 61 1838 52 683 19 307
4461 -0.51752950645560047 1.6629829952655648 2.4961089541378567 67 119 57 0.21584361305569452 34 927 37 1784 61 1819 86 367
4459 -0.19920128056031064 1.80985751433357 2.4693215686036805 242 232 156 0.17723629535582158 43 1627 61 1777
4458 -0.35574351943485005 1.5664765449619351 2.4695804666722263 149 162 97 1.1087364249622413 59 920 61 1776 64 304 76 428
4455 -0.15454553460517628 1.7267892985682893 2.4638844022667983 72 134 66 0.097456395720779923 74 879 61 1756 83 656
4454 -0.58369374786293426 1.5131118823066696 2.0298088785303765 156 168 98 0.16650386791276761 74 810 61 1752
4453 -0.2874757143249671 1.4891687445005228 2.4733072186469705 156 168 98 0.12659256737483454 59 892 61 1751
4452 -0.34413660077794439 1.0019042739055763 2.6183514207417717 77 134 59 0.1397731010704609 43 1626 61 1716 76 831
4451 -0.56353979484451622 0.59212030048196451 2.2104637999364223 91 148 67 0.30384902350951043 43 1922 61 1639 76 762
4450 -0.04239757032582489 0.71137936208252961 2.5981313749354706 165 165 174 0.21951462996060797 43 1032 61 1631 76 755
4449 0.48080131715131991 0.96708424245760582 2.5911503337309294 201 203 217 0.66639481717472182 43 1448 77 196 61 1588
4448 -0.27015957685389069 0.4200677462651809 2.2315926468018077 44 93 48 0.22967409581114165 43 1514 61 1584 76 716 60 1424 79 617 26 865 20 568 53 567 18 555
4447 -0.32350307285889268 0.36510131534531748 2.194144476106676 202 197 202 0.34714523396330765 43 1008 61 1577 76 209
4446 0.37443162502397298 1.1912716943737724 2.0679081824225718 67 107 48 0.25305104433643355 43 1411 61 1558
4444 0.32545190240246813 0.80699965844369648 2.2285663267847702 124 156 101 0.32418734142767558 35 187 61 1542
4443 -0.24659383801701873 0.32904138380355408 2.0219891305709252 114 119 79 0.34338979254751723 43 1466 61 1540 76 684 79 575 60 1378 53 526 93 510 18 519 96 28 26 833
4442 0.51034950183920935 1.0877974212460593 2.1149273788105498 189 252 139 1.7522057855582676 43 2065 97 326 56 1019 76 1013 52 487 44 1041 49 924
4439 0.046342423930794241 0.40745028263957173 1.7689985393868035 170 170 123 0.55559919248574186 77 634 61 1489 64 485
4438 -1.0728325752967864 1.6246824606328261 3.3551851906273251 162 149 140 0.30494513246947469 43 786 61 1452
4437 -0.880156564214854 1.5630656503220699 2.7877802562063558 99 74 53 0.44010647915189299 37 1340 61 1437 86 411 76 968 60 1972 52 421
4436 -0.65536009340145429 1.814321778526399 2.7580911384255167 44 33 23 0.13417771297646894 37 1369 61 1433
4435 -0.93489144054777595 1.4249070835165252 2.6136098141256427 72 123 57 0.72019795866110115 77 573 61 1428 60 1195 79 412 65 1111
4431 -0.8778871502161073 1.3343199884545474 2.6037379355662131 221 204 120 0.22811734933997457 50 715 54 12 62 262 61 1403 33 1006
4430 -0.66563460358032767 1.6965266499087044 2.544194631392199 218 226 126 0.18848563578167224 43 1309 61 1401 60 664
4429 -0.75142183941826857 1.5126816853754097 2.5514505456109093 73 131 61 0.14843503871404493 59 454 61 1395
4428 -0.72156284852677921 1.434260743622459 2.5402596499378287 219 209 132 0.14110862144688849 34 429 61 1370
4426 0.29892610339973497 1.2765483555205255 4.3426503096815967 249 227 141 2.4835656348620456 37 1276 61 1361
4425 -0.77443773246732717 1.2149792406985906 2.6216936322455373 183 186 103 0.19339389924313513 43 1314 61 1357 76 509 33 995 65 1059 18 307 52 378 19 341
4424 -0.51391581529271502 1.6572040893260289 2.4926044020699529 70 119 58 0.14661964336067682 37 1305 43 1263 61 1342
4422 -0.33107300351137847 1.2304979190304646 3.2268257131734934 73 112 53 1.0455773928636201 35 374 61 1337
4420 -0.82875801926829729 1.0757170665787004 2.5479741629338335 136 97 67 0.20102558332418544 43 721 61 1328 60 1086
4419 -0.43998023768104338 1.7083122660516719 2.4836450827484455 88 133 68 0.18361026037982264 59 492 74 446 61 1323
4417 -0.45855871826413164 1.4557896466512035 2.4941020870709907 73 121 61 0.10315320280630477 59 410 61 1294
4415 -0.84207908114082941 1.769073784071749 1.5757179552309919 249 241 161 2.3496875006762696 37 1272 61 1277
4414 -0.47537319866736072 1.2814641031247738 2.5275790159846485 234 218 134 0.18132494012022216 10 740 50 1165 61 1264 76 434
4413 -0.33974921120396784 1.5327466210625706 2.472514940942538 135 153 89 0.19523625964432598 12 252 43 1187 61 1263
4412 -0.1301357634965849 1.8135004133773729 2.457642308299004 152 187 107 0.069545424974428033 50 1040 61 1254
4410 -0.38296384776584547 1.3923555648229677 2.4939950470983989 242 235 144 0.082625896833004392 54 740 61 1251
4409 -0.68717675735882322 1.4926052237452057 2.5288420861260379 112 189 90 0.33274052386706338 59 445 99 415 64 296
4407 -0.21174536742966862 1.5734124261167441 2.464218027585952 250 237 150 0.17337989882090019 43 1158 61 1227 76 390
4406 -0.21174536742966862 1.5734124261167441 2.464218027585952 250 237 150 0.17337989882090019 43 1157 61 1226 76 389
4403 0.19267355358255955 1.9232815751917935 2.5049759285915374 111 145 64 0.42070347265997776 50 259 61 1192 44 4 30 380
4401 -0.29595005690304749 1.1283209035244781 2.5636039569235747 74 133 60 0.033265782782273365 43 1160 61 1184
4400 0.20979125022850748 1.8980434658620808 2.5087484973410374 90 141 58 0.15356836817361921 43 1051 61 1181 33 124
4399 -0.4049455639144206 1.5659407988071097 1.9930614886665297 210 208 129 2.2675487925241162 35 456 61 1180
4398 0.26843689681592403 1.8011658264982782 2.5395758422374666 130 140 65 0.09446849205030787 43 1024 61 1146 33 716
4397 0.31132139828657468 1.6366423032722075 2.4069926570784363 252 234 214 0.43401261915871869 50 194 61 1093 33 107 65 315
4396 -0.151036071510711 0.64260496102210618 2.6128498996194183 96 93 44 0.59379602295421596 37 988 61 1079 76 309 60 1005 26 972 20 195 27 193 6 780 80 465 75 932
4395 -0.019101212257607858 0.67103762740387984 2.5320191510961045 161 153 157 0.4430827226131126 34 706 61 1051 86 171
4394 -0.26568810799781833 0.42575664247195644 2.2151983403760158 137 136 92 0.29116555926017557 43 305 61 1012 76 207 60 248 26 213
4393 -0.18246360993058397 0.52709463766124665 2.1990257366058956 54 105 55 0.15212757910129082 43 271 61 1007 76 198
4392 0.17623348371547559 0.36712562059188819 2.6305388923098763 151 160 114 1.6750659003462016 56 155 61 1000
4391 0.46996719774478946 0.88219497720190887 2.4097210667920472 123 128 139 0.46952213876687737 56 94 61 983 79 181 53 172 93 174
4390 0.52644242019012555 0.91040275098665691 2.3544347167468005 172 181 197 0.21443864287503309 43 878 61 969 60 1454
4389 0.52644242019012555 0.91040275098665691 2.3544347167468005 172 181 197 0.21443864287503309 43 877 61 968 60 1455
4388 -0.22103314110363814 0.35338986735853523 1.9856365163274534 58 112 56 0.0560979485747631 43 939 61 949 60 865
4387 0.48134968029209912 0.92951323946333186 2.1847400809719586 188 163 141 0.82134091730626069 50 814 61 939 60 910 65 165 40 37
4386 -0.29488431296607215 0.2433089878557663 1.940875259544848 134 130 132 0.39450842255191892 43 217 56 221 61 932
4385 0.35652891245775031 0.69528758653152345 1.9514741661140711 74 133 70 0.13653399150600165 43 85 61 901 76 86 65 101
4384 -0.095318048222724938 0.2948609192931913 1.8006222890060128 42 87 49 0.084163547277770645 43 866 61 889 76 82
4383 -0.095318048222724938 0.2948609192931913 1.8006222890060128 42 87 49 0.084163547277770645 43 867 61 888 76 83
4382 0.14224584345394548 0.48838775638703857 1.7905567930139297 58 103 51 0.2707921287402783 99 49 61 881
4381 0.19535065113246441 0.5065952769326173 1.7787445090805063 54 96 50 0.20127715125216164 99 50 61 872 6 660
4380 0.17867928143246431 0.48157267934319248 1.7514579391567986 230 228 159 0.19071785836734079 59 45 61 870
4379 0.57965472616504077 0.6599518468015847 1.7830146187105671 156 154 159 0.091149084279271528 43 801 76 28
4378 -0.95864298325367581 1.2994107288242516 2.8755134830216376 186 162 127 0.262802610393432 43 777 61 803
4377 -0.72594618355427176 1.6318391010302897 2.5596068459778207 88 149 68 0.1558281392879827 37 683 61 763 60 658 65 569
4371 -0.65617009002774696 1.5606458984507086 2.5231667002003269 74 118 59 0.29918726427399334 50 646 61 712 60 592
4369 -0.54382259148610879 1.7177467394250334 2.5073936659430807 76 136 62 0.027031540569013551 95 710 61 703
4368 -0.72990947688261298 1.3499202566377275 2.5537024471612533 186 177 106 0.095759298954071259 10 190 61 696
4366 -0.69281131410478625 1.3345878629434818 2.5462409754948561 73 115 57 0.13845797383130412 43 705 50 662 61 680
4365 -0.46961424511887762 1.6682981812742554 2.4849221902540002 231 219 143 0.16646311944023109 37 657 43 637 61 669
4364 -0.6519223557766386 1.3340600805163061 2.5419071125201023 70 115 55 0.34308226275683257 43 689 61 668 33 476
4362 -0.66122190083544408 1.2969062105281668 2.5500550067743748 87 121 61 0.023300799934778696 43 695 61 662
4359 -0.57604365705068372 1.3395478485204768 2.5317595292014285 80 119 59 0.10098752116471585 43 653 61 634
4357 -0.3867463628123895 1.6481119505391595 2.4727417942766805 70 121 61 0.028312849862063616 37 629 61 624
4353 -0.34627602531570922 1.6763698836905048 2.4659229823334372 255 243 162 0.012471014601656925 37 641 61 613
4350 -0.40446297735584236 1.4785889453339387 2.4820304851081665 248 232 144 0.10039249194204694 50 529 61 589
4348 -0.45951786199100536 1.2793142239124287 2.523829079288292 77 121 60 0.0024235318782388597 43 589 61 575
4346 -0.16538999217074565 1.7282761244946165 2.4626094667478573 74 134 66 0.13315006936233137 43 485 62 615 61 561 6 456
4344 -0.1559836033812054 1.6330374021449725 2.462067839798852 77 133 69 0.061651298005225286 35 481 61 538
4343 -0.52897784894895516 1.0134143019701582 2.2191027469113851 84 144 62 1.7309809266719267 37 1056 61 470
4342 -0.11864327006153666 1.2228955576310299 2.5251820100721636 185 170 107 0.017367516150972685 43 416 61 460
4341 -0.62710912478752068 0.7751556744838054 2.1795712479761624 85 152 78 0.2981367710379878 56 435 61 436 60 340
4340 1.8782818385835074 -0.43863337759575449 6.211955525159639 73 132 69 0.37003011401542385 37 373 61 427
4339 1.8782818385835074 -0.43863337759575449 6.211955525159639 73 132 69 0.37003011401542385 37 374 61 426
4338 0.19210557479967233 1.4012176480606169 2.5328367550389244 96 140 69 0.15237012602762315 43 319 61 415
4337 0.29537047243777353 1.4894225807308548 2.5339046314037672 212 198 137 0.34892808654151897 77 367 61 405
4336 0.31223765456134844 1.4478219447742924 2.5510171013092573 189 185 124 0.083216344344010082 77 349 61 402
4334 0.89673871270524763 -0.082613396805233039 3.9899095446941444 53 109 60 3.2122717073554097 37 285 61 333
4333 0.30924989938619007 1.3775123348611618 2.0864429035021259 239 216 169 0.28570820053056045 43 186 61 295 76 174
4329 -0.23866687423240487 0.40174978951364021 2.0794179388477834 62 117 60 0.073052844096159961 43 238 61 233
4328 -0.19743044729979728 0.4414704000511438 2.0696982007416289 53 100 49 0.018132559229598534 43 228 61 227
4327 -0.18236558055054386 0.44210616518350443 2.0447461458178622 151 155 111 0.27239805421107827 43 221 61 216 60 185
4326 0.06128968855787098 0.56435465419041109 1.9703691130222631 188 190 143 0.014213723964124753 43 147 61 157
4325 -0.21187451300617816 0.29501285025324492 1.908675323950483 49 93 49 0.37195126826398195 50 257 61 150 60 119 33 208 52 68 19 59 65 768
4324 -0.12222574822407259 0.39687599834668569 1.8991238176013403 181 173 123 0.1607361827032816 43 177 61 148
4323 0.28073800949487249 0.65174889769287236 1.9186187298515043 64 120 65 0.17789762460791253 59 90 61 120
4322 -0.16292724947787385 0.23990230394606782 1.8291961749383538 44 83 48 0.1211277934830577 37 55 61 119 60 83 65 79
4321 -0.13482704538495593 0.26682398005999602 1.8197271537580548 42 86 48 0.11857484380714027 43 138 61 112 60 81
4320 0.36662696129964478 0.68258656456935241 1.9263098024019139 79 142 71 0.34827344662170023 77 107 61 107
4318 0.13979061808719456 0.38087193735607416 1.7014274607042088 59 88 54 0.082084476507679471 43 62 61 49
4317 0.26733689200296218 0.41713863031493215 1.6834097580725675 51 86 52 0.14605500657831441 43 34 61 26 60 33
4316 -0.26116543103555379 0.23049449889201387 1.873864309582995 177 180 193 0.77842957482236386 95 1637 16 1559 3 384 54 1147 62 1135 3 5 12 971 10 976 31 309 31 803 97 47
4315 0.43507862306646161 0.61068219036129889 1.8855766249276202 181 192 139 1.3475932017634835 54 1964 97 560
4314 0.38868663197849718 1.9779117744720007 2.8365703790111012 0 0 0 0.24917462780303909 62 2123 31 1170
4313 0.39914403760496719 1.1511423085157382 2.3111052054665158 211 198 162 0.73198522409654676 16 421 31 248
4312 -0.56303199373593149 1.0588888170544546 2.6125879443950555 75 109 53 0.045429703201091694 16 921 31 127
4311 -0.89670486609439937 1.0944413294433799 2.5963527778170112 110 83 56 1.0374292559274989 54 1054 10 1162 31 399 74 244 35 807 34 313 77 978 59 837 37 1668 99 778 64 644
4310 -0.40745577342936112 1.0971172461018224 2.5792110982147136 80 121 59 0.39998084577847393 62 1587 74 1062 34 790 12 528 59 809 37 1641 99 769 31 472 77 893 43 1639 61 1739 83 520 94 826 49 980 36 904 70 309
4308 0.20866967095700606 1.0478588394407349 2.6449045898960879 45 96 51 0.25238832356225049 62 1361 10 1168 31 558 95 1417 3 493 54 1312 63 630 35 788 77 796 50 1411 43 1507 33 787 44 912 51 605 78 135
4307 0.056685622226831711 0.3635088038412021 1.7355424292544988 60 116 62 0.18137371379988526 54 862 10 952 31 320 63 99 77 68
4306 0.45831146903758668 1.0734691808805128 2.0994972947482862 109 134 70 0.32808052257528131 62 1854 16 1881 54 1720 77 1165 10 1515 31 921 95 1760 74 1073 44 1168 49 1043 70 436
4303 0.22619292840924149 1.4319319248496907 2.5359477157197974 220 203 120 0.34564844063557065 95 2015 16 1908 3 717 54 1698 62 1860 63 1210 35 1398 34 1359 77 1445 59 1421 37 2257 99 1128 31 883 56 1275 50 1927 43 1874 10 1495 61 2266 86 579 76 1077 82 343 33 1587 97 302 52 820 44 1166 19 514 40 686 30 1006 9 1020 94 761 49 1134 36 976 70 520
4301 -0.0067626816933019362 1.6881066975180081 2.4716544588700926 136 155 90 1.7317215561694892 34 1541 77 1701 31 954 63 1365 56 1443 6 1841
4299 0.10575941080316092 1.1034430037722052 2.6025694983932834 53 103 55 0.29351255613451904 63 1213 56 1279 50 1939 10 1536 31 905 95 1969 62 1822 16 1874 3 674 54 1681 74 1272 12 1049 97 287 51 720 78 243
4298 -0.37016241567783847 1.2859998806504171 2.5160504802516068 236 222 133 0.22216675896447835 63 1277 50 1992 43 2146 10 1510 31 864 77 1471 59 1420 37 2259 61 2305 56 1337 76 1335 33 1629 97 228 52 1026 19 768
4297 -0.14014983741206666 1.0137782391183174 2.6044016228038025 69 99 47 0.13449966350172587 63 292 10 822 31 204 54 800 50 1051 44 634 30 548 49 601 51 170
4296 0.12547376548483336 1.2318653758108919 2.5665976541906441 45 89 47 0.31861291112260121 62 990 16 988 63 221 56 234 31 191 95 1086 54 908 74 335 35 344 34 377 10 757 44 564 51 201
4295 -0.30471567423705348 0.99490586446250862 2.6173144642572685 63 102 48 0.18699983501075373 63 350 10 827 31 181 62 830 77 344
4294 -0.62563186284762184 0.77389133386573106 2.1807031153540715 80 142 69 0.25969772155181325 62 738 10 400 31 149 16 197 77 306 59 196
4293 -0.33793035482504685 0.90867308420236625 2.6538787580995229 32 66 29 0.21602016212196726 62 1564 16 1642 54 1466 31 753 3 436 10 1432 97 63 78 57
4292 0.032731307684702782 1.4822403282727024 2.4949064049475527 75 135 68 0.24273432593794081 56 276 43 384 31 118 59 377 99 382
4290 -0.17775757725058672 1.3618890787345868 2.4948444057212091 56 95 52 0.14635968991210876 16 1025 54 797 77 410 10 714 31 111 95 1123 62 993 50 1054 49 490 51 95
4289 0.12269749929230661 1.8927173874054051 2.4876443542791984 91 160 72 0.5766706632129539 35 553 10 5 31 43 16 1547 63 296 44 5
4288 -0.76254762812077648 1.3993878488146139 2.5474463852242915 123 117 70 0.21164964853458948 62 896 10 711 31 22 16 1018 63 491
4286 0.62849149326652776 0.84881876210503138 2.0425840817534593 0 0 0 1.9955231236482653 3 1006 31 1171
4284 -0.28160227706224344 0.42659926723315572 2.3396150900412174 92 124 71 0.99780506491619636 10 1742 31 1092 97 457
4283 -0.49742780722280516 0.64937618230951355 2.2112264836667026 193 183 153 1.2966447199960154 62 1988 31 1052 30 1152 70 615
4282 -0.34778174319905097 0.37575140986098338 2.2372807874283871 96 74 46 0.50204943187099738 10 1679 31 1033 97 402 54 1797 62 1937
4281 -0.17719447853220732 1.7015426417470629 2.4718984321772943 172 189 107 1.2496996365951101 62 1970 31 1011 78 330 49 1129
4279 0.2416560415715116 0.33590402174850476 1.5480960453630501 88 62 39 0.58155990984293593 10 1575 54 1702 62 1757 31 1008
4278 0.40245196105534675 0.91628308250315382 2.4462672683838638 188 191 186 0.67810626648942474 54 1826 31 1002 62 1955
4277 0.1400895857046755 1.0915044468846029 2.6063023865956851 115 120 76 0.30001901654760355 10 1615 31 990
4276 -0.47773088427295973 1.5303029670522506 2.4794106218359584 200 196 118 0.47488274189923968 10 1594 31 949 97 335 44 1165 36 979
4275 0.20720011729799154 1.0696272299345222 2.6365958941958678 45 91 49 0.1572575146382372 95 1967 31 914 97 297 44 1202 51 730 78 256
4274 0.11196876216559104 1.2747078624154222 2.5533438592820854 107 111 72 0.39187788240329086 54 1683 62 1842 31 888 83 1006 30 1016 49 1061
4269 -0.34881381307449177 1.6868207967543802 2.4418070198773045 107 180 86 0.12632793286289673 62 1861 31 833
4268 0.17342879738807188 0.30643816824385006 1.5936639512496789 255 255 159 0.1806466698211128 54 1542 62 1168 31 827
4266 0.080280874270364733 0.94809444299162671 2.6585526117955545 117 127 77 0.051878595007580464 35 763 31 782 97 126
4265 -0.17203405310041281 1.0134288299002385 2.6269259902297777 47 82 37 0.0016248769937966324 54 1198 31 754
4263 -0.27182690318830049 0.95152115508972002 2.6327909622898948 166 149 88 0.10597986941033348 50 1808 31 752 44 1113
4262 -0.44065802522985742 0.86849213272766113 2.683920441836892 60 109 48 0.20318684792158623 3 431 62 1552 31 749
4261 -0.20189240038825057 1.0266203968972845 2.5983377980857072 186 167 101 0.072639607487788582 43 1918 31 746
4259 -0.24094937559251534 1.0547484762432302 2.5909857799489435 163 150 89 0.29283838609727025 43 1926 31 741 30 902
4258 0.35190285153290957 1.3276626165956438 2.0729549203694559 250 235 217 0.74712145003441532 10 1334 31 736 30 682 49 711 78 116 70 262 28 165 21 33 84 20
4257 -0.57474142824184282 0.72709441912117456 2.1781824578604909 199 219 146 0.18930787120985323 10 1230 31 728 30 704
4256 0.0037024673504241212 1.2809688617779316 2.534887086496282 41 74 38 0.21468257611151079 10 1368 31 726 97 115 12 891 44 1056 30 889 51 564 70 431
4254 0.35969955721867086 1.4311329134730557 2.0099714877790431 255 255 255 1.0009459336288264 10 1009 31 714
4253 0.28227502908579993 1.4110005266467553 2.0552562333245916 251 239 201 0.26809515636083131 54 1349 62 1482 31 712
4252 0.28684713203516637 1.440685175591272 2.0675091478932988 124 105 73 0.1671303270350124 54 1565 62 1715 31 708
4251 -0.32889858497821561 1.3005906289060054 2.5055772304597017 60 99 51 0.26550783580740478 16 1712 62 1630 31 691 82 182
4249 -0.25784887339751528 1.4675320894652923 2.4438023042356281 68 123 60 0.023784688648377961 10 1336 31 675
4247 -0.50317014638730329 1.342442344654212 2.5175199879467107 203 190 112 0.41228968736588711 35 1197 31 669
4246 -0.38701021407404923 1.4332420406798576 2.4867052922979203 218 206 126 0.16512899608551218 43 1958 31 668 82 195 62 1657
4245 -0.10715686088179932 1.6405443512964863 2.4592291400697857 75 136 63 0.047550867929156686 16 1771 31 667
4242 -0.74611703258410378 1.2982009746599408 2.5699992523109536 218 202 117 0.18837342135775023 10 1370 31 658 33 1672 44 1074 40 916 9 1190 94 1140
4241 -0.18974151639040143 1.7528191341355799 2.4591914072859637 164 195 112 0.023860349609219421 56 1144 31 649
4240 -0.29263340022579581 1.7043325754705341 2.4613374404716644 230 218 143 0.072578030065487451 10 1315 31 647 30 822
4239 -0.16056635337522498 1.8508086347785224 2.4797396319774898 110 191 95 0.21727364508238053 62 1719 31 643 33 1140
4238 -0.52719216260396329 1.5896370713774579 2.496576038433393 216 206 128 0.16916315006222452 10 1487 31 640 44 1035
4235 0.49099879259077628 0.9216992256358445 2.1800815894853667 83 73 44 0.31268584315236686 50 809 62 1401 31 599 61 191
4233 -0.49913255475539908 0.62460659107603056 2.2138547383515723 170 214 134 0.098405142274565205 54 1099 31 527 30 744
4232 0.23407857674741667 1.3073625851860571 2.5613009919204712 172 163 104 0.21621225370789987 3 289 10 1077 31 522 30 730
4231 0.23491261730925428 1.3095497215391847 2.568748306017989 172 163 104 0.088994989447520018 3 290 31 521 44 824 88 402
4230 0.020461231862797968 1.3046942242803454 6.0301635370667803 0 0 0 1.4926257857585421 34 951 95 1440
4229 -0.2046111149124103 1.0637478828725178 2.5806061120595847 49 85 41 0.021719701554759038 56 812 31 508
4228 -0.28542911378300112 1.1095604087148914 2.5673615300647601 187 166 100 0.084376640337797723 63 779 31 483 51 365
